# .PCD v0.7 - Point Cloud Data file format
VERSION 0.7
FIELDS x y z
SIZE 4 4 4
TYPE F F F
COUNT 1 1 1
WIDTH 1489
HEIGHT 1
VIEWPOINT 0 0 0 1 0 0 0
POINTS 1489
DATA ascii
-0.39463502 0.40144753 -1.6772
-0.38456333 0.40134665 -1.6767999
-0.37475601 0.40149799 -1.6760399
-0.36471 0.40145001 -1.6772333
-0.35468251 0.40130499 -1.676625
-0.34494665 0.40156665 -1.6777333
-0.33791 0.40162498 -1.6779499
-0.32544667 0.40201664 -1.6795667
-0.3153725 0.40167999 -1.678175
-0.30558667 0.40178999 -1.6786667
-0.2956025 0.40152502 -1.6775
-0.285485 0.40234837 -1.6787
-0.27462 0.40157667 -1.6777334
-0.26471001 0.40130252 -1.6765751
-0.2552 0.40189996 -1.6790667
-0.24404001 0.40191665 -1.6791667
-0.2383 0.40226501 -1.6772
-0.13200334 0.40159667 -1.6755333
-0.124705 0.40185499 -1.6789
-0.1150025 0.40141749 -1.6770999
-0.10533334 0.40147665 -1.6773334
-0.09566775 0.40185249 -1.6789
-0.087373003 0.40178999 -1.6786
-0.0735595 0.40163499 -1.678
-0.065301254 0.40119749 -1.676175
-0.058324002 0.40191999 -1.6792001
-0.0430815 0.40205002 -1.67975
-0.034804001 0.4018575 -1.67895
-0.025192665 0.40141335 -1.6770667
-0.0162652 0.40141803 -1.6784799
-0.0043262402 0.40180001 -1.6787
0.0052557997 0.40133667 -1.6767334
0.0151265 0.4018625 -1.67895
0.023474999 0.40189499 -1.6791
0.045742504 0.40187252 -1.6789999
0.055344999 0.40148667 -1.6773666
0.065039247 0.40132251 -1.6767
0.075659245 0.40203249 -1.6779499
0.081666999 0.40305004 -1.6793333
0.093307003 0.40193999 -1.67925
0.11438667 0.40193999 -1.6792334
0.13705 0.4021 -1.6798999
0.14547335 0.40200332 -1.6795001
0.15256999 0.40201998 -1.6796
0.16802 0.40178999 -1.6786
0.17480248 0.40134251 -1.676775
0.18494333 0.40158334 -1.6777667
0.19800501 0.40185499 -1.6789
0.203815 0.40195501 -1.6793
0.21456751 0.4015525 -1.6794
0.24849001 0.40198001 -1.6794
0.25545251 0.40128002 -1.67825
0.26894999 0.4021 -1.6799001
0.27608666 0.40147337 -1.6773334
0.28461999 0.40171501 -1.67835
0.29492334 0.40177 -1.6785666
0.31257001 0.40019 -1.6789
0.32438999 0.40177 -1.6786
0.33899 0.40000001 -1.6781
0.34836 0.40193 -1.6792001
0.35388669 0.40156999 -1.6777333
0.36453 0.40170249 -1.6783
0.37505001 0.40092 -1.67845
0.38416001 0.40175998 -1.6785334
0.39484498 0.40183002 -1.6787751
0.41347 0.402105 -1.67995
0.422075 0.402475 -1.6781
0.22633 0.42227 -1.6792001
-0.77199 0.39477667 -1.6655999
-0.76455003 0.39537331 -1.6657666
-0.75503623 0.39497125 -1.66495
-0.744968 0.395118 -1.6646801
-0.73387665 0.39559114 -1.6666778
-0.72447324 0.39480498 -1.6645333
-0.71593285 0.39438429 -1.6636143
-0.70374829 0.39470163 -1.6641167
-0.69600999 0.39458004 -1.6644572
-0.68586111 0.3952089 -1.6650667
-0.67461449 0.39528555 -1.6646112
-0.66496599 0.395668 -1.66629
-0.65507996 0.39460143 -1.6655428
-0.64477164 0.39448333 -1.6644
-0.63603872 0.39573127 -1.6654625
-0.62532669 0.39417329 -1.6642666
-0.61451244 0.39480752 -1.6651374
-0.60414571 0.39537433 -1.6657572
-0.59468496 0.395686 -1.6663799
-0.58557504 0.3948667 -1.6659833
-0.57366002 0.394894 -1.6666
-0.56472164 0.39429334 -1.6647834
-0.55484003 0.39440891 -1.6648889
-0.54442376 0.39459375 -1.6651752
-0.53523326 0.39533001 -1.6663668
-0.52475333 0.39361501 -1.6631333
-0.51435798 0.39287502 -1.66242
-0.50465286 0.39423999 -1.6639999
-0.49523997 0.39409497 -1.6639166
-0.48427001 0.39423999 -1.6640285
-0.47521672 0.39359665 -1.6646557
-0.46503502 0.39432377 -1.6649125
-0.45510203 0.394622 -1.6669
-0.44564861 0.39417002 -1.6647571
-0.43506998 0.39499003 -1.6659
-0.42509499 0.39463997 -1.6662334
-0.41634575 0.39432859 -1.6654284
-0.40578288 0.39434716 -1.6654857
-0.39401332 0.39465332 -1.6650666
-0.38649833 0.39388999 -1.6654834
-0.37481999 0.39315251 -1.6635751
-0.36425498 0.39320168 -1.6650167
-0.35483927 0.39417782 -1.6653713
-0.3451789 0.39380333 -1.6647334
-0.33505431 0.39411142 -1.6645143
-0.32467502 0.39455834 -1.6658834
-0.31565857 0.39439568 -1.6657287
-0.30367169 0.39363834 -1.6656166
-0.2941725 0.39325249 -1.6649123
-0.28507635 0.39324635 -1.6646546
-0.27494442 0.39419222 -1.6655555
-0.26574752 0.39369625 -1.6649876
-0.2549057 0.39438567 -1.6656427
-0.24444 0.39442623 -1.6662375
-0.23846999 0.39438498 -1.6651499
-0.13269 0.39631999 -1.6662
-0.12534554 0.39365661 -1.6648889
-0.115402 0.39397201 -1.66559
-0.10526667 0.39329669 -1.6653999
-0.095220774 0.39293998 -1.6651
-0.084722422 0.39365581 -1.6657166
-0.075143889 0.39347112 -1.6649445
-0.065942548 0.39318818 -1.6643909
-0.055148594 0.39314801 -1.6650301
-0.044643 0.39341626 -1.6655999
-0.0359862 0.393004 -1.66441
-0.02452375 0.3922475 -1.6634001
-0.01541125 0.3943775 -1.66695
-0.0037927215 0.39392143 -1.6658
0.0046771113 0.39302772 -1.6646779
0.015304429 0.39293718 -1.6637
0.024844499 0.39208749 -1.66275
0.035735428 0.39243287 -1.6636286
0.045222003 0.39378196 -1.6655201
0.055970997 0.39322197 -1.6653602
0.064531572 0.39270142 -1.6637714
0.075454995 0.39344898 -1.6663001
0.085289173 0.39301834 -1.66425
0.093789004 0.39294201 -1.66414
0.10508557 0.3928189 -1.6646111
0.11463286 0.39504716 -1.6674286
0.125965 0.39436498 -1.6662668
0.13483 0.39298111 -1.6645
0.14497857 0.39273861 -1.6649572
0.15487701 0.39288402 -1.6639
0.16505429 0.3934643 -1.6648999
0.17482728 0.39317182 -1.6643364
0.18502201 0.39375699 -1.6653999
0.19664286 0.39337856 -1.6655999
0.20450714 0.39380428 -1.6663429
0.21540427 0.39254859 -1.6641428
0.22491167 0.39259669 -1.6648833
0.23439571 0.39329141 -1.6652
0.24465834 0.39335498 -1.6656667
0.25490555 0.39364445 -1.6664778
0.26618502 0.39330497 -1.6654333
0.27451 0.39398834 -1.6659001
0.2855489 0.39346778 -1.6657112
0.29554832 0.39294502 -1.6651167
0.30438599 0.39448801 -1.6663198
0.31511143 0.39234427 -1.6643143
0.32526428 0.39267287 -1.6646713
0.33477622 0.39263374 -1.6641251
0.34450752 0.39387375 -1.6657375
0.35541219 0.39392 -1.6660112
0.36451998 0.39386502 -1.6656876
0.37535167 0.39237499 -1.6627501
0.38468799 0.393278 -1.6641001
0.39549169 0.39223996 -1.6633501
0.4043425 0.393875 -1.664825
0.41556996 0.39273602 -1.66476
0.42061001 0.39372998 -1.66605
-0.77241999 0.38776335 -1.6529001
-0.76503998 0.38895333 -1.6555333
-0.75538713 0.38806146 -1.6534714
-0.74479717 0.38874143 -1.6553
-0.7346366 0.38809666 -1.6543332
-0.72446495 0.38828835 -1.6538998
-0.71571332 0.38865998 -1.6542667
-0.70373839 0.38811502 -1.6531667
-0.69606668 0.38823667 -1.6549
-0.68546671 0.38755333 -1.6544666
-0.67509997 0.38837713 -1.6537715
-0.66434336 0.38810501 -1.6543502
-0.65551168 0.38775501 -1.6540667
-0.64381599 0.38900599 -1.65478
-0.63450831 0.38820997 -1.6535834
-0.62454569 0.38795429 -1.6529857
-0.61508161 0.3883867 -1.6543499
-0.6041075 0.3876825 -1.65315
-0.59469998 0.38813713 -1.6537714
-0.58498168 0.38832831 -1.6540833
-0.57613665 0.38839665 -1.6544
-0.56486249 0.38691249 -1.6517251
-0.55510002 0.38736001 -1.6536001
-0.54648668 0.38753667 -1.6543666
-0.53546286 0.38814858 -1.6538286
-0.52552497 0.38678002 -1.6529751
-0.51639664 0.38673499 -1.6534166
-0.50404996 0.38770252 -1.6541625
-0.49468139 0.38814858 -1.653857
-0.48588747 0.38703001 -1.6540749
-0.47419399 0.38774002 -1.65378
-0.46518856 0.38672999 -1.6530285
-0.45425898 0.38693997 -1.6532999
-0.44498667 0.38742003 -1.6539
-0.43439376 0.38751376 -1.6542749
-0.42569751 0.38773 -1.6533749
-0.41515249 0.3874175 -1.6538751
-0.40497336 0.38708666 -1.6524667
-0.39509889 0.38817558 -1.6546445
-0.38462141 0.38657001 -1.6534144
-0.37517834 0.38705334 -1.6535335
-0.36419749 0.38699001 -1.65205
-0.35531801 0.38679799 -1.6541601
-0.34515002 0.38765252 -1.6549
-0.3356975 0.38665751 -1.6524751
-0.32555252 0.38747001 -1.6540999
-0.31544 0.38722572 -1.6541001
-0.30626601 0.38654 -1.65306
-0.29431 0.38641712 -1.6527427
-0.28594199 0.38672 -1.6538401
-0.27562249 0.38630503 -1.6528125
-0.26545998 0.38692716 -1.6549143
-0.25423199 0.38846201 -1.65538
-0.24557877 0.38665375 -1.6542875
-0.23695 0.38680401 -1.6527199
-0.13231501 0.38766998 -1.6513
-0.12623374 0.38673249 -1.6527874
-0.11488429 0.38643432 -1.6528285
-0.10519334 0.38631499 -1.65285
-0.095688879 0.38672873 -1.6546
-0.085278891 0.38621664 -1.6536444
-0.075324006 0.38640001 -1.6532001
-0.066369429 0.38687569 -1.6547
-0.054346714 0.38671568 -1.6540142
-0.044644002 0.38641715 -1.6537857
-0.035264004 0.38696 -1.6550857
-0.0243969 0.38642198 -1.6554902
-0.015149999 0.38611877 -1.653825
-0.0060576289 0.38746002 -1.6551
0.0057124002 0.38725144 -1.6562998
0.015880376 0.38615879 -1.654
0.02415725 0.38639501 -1.655
0.034843799 0.38733202 -1.6549801
0.045262404 0.38702801 -1.6551399
0.054200254 0.38659623 -1.6540375
0.065807864 0.38680142 -1.6544
0.074834168 0.386675 -1.6543665
0.084501997 0.38674626 -1.654675
0.095370002 0.38644874 -1.6534125
0.10482001 0.38608336 -1.6518334
0.1147875 0.38659373 -1.6540374
0.12465778 0.38575554 -1.6532888
0.13484713 0.38681144 -1.6544286
0.14526375 0.38652998 -1.6537626
0.15527 0.38690004 -1.6553167
0.16546501 0.38622299 -1.6546199
0.17544857 0.38652998 -1.6542714
0.18486142 0.38651285 -1.6531428
0.19498181 0.3852936 -1.6527547
0.20454335 0.38611558 -1.6539778
0.21500286 0.38672572 -1.6551286
0.22469144 0.38694143 -1.655
0.23478143 0.38666004 -1.6548284
0.24495126 0.38653249 -1.6546624
0.25503555 0.38635889 -1.6542555
0.26517832 0.38660669 -1.6540667
0.27482143 0.38669997 -1.6550142
0.28468144 0.38692573 -1.6549284
0.29399666 0.38665667 -1.6542832
0.30462891 0.3872411 -1.6555667
0.31518 0.38659996 -1.6545857
0.3253144 0.38624445 -1.6545445
0.33543 0.38646284 -1.6539999
0.34544283 0.38666287 -1.6537999
0.35524333 0.386655 -1.6542999
0.36530447 0.38721111 -1.6537999
0.37502429 0.38695142 -1.6539857
0.38577574 0.38658571 -1.6545142
0.39452145 0.38567713 -1.6526858
0.40477124 0.38699999 -1.6557875
0.41432801 0.38690799 -1.65464
0.42197499 0.387225 -1.6530499
-0.77140498 0.39026499 -1.655
-0.76986998 0.39035001 -1.659
-0.74261498 0.39201 -1.6587
-0.73653668 0.39078999 -1.6584333
-0.71512997 0.39008 -1.6579
-0.70740497 0.39179501 -1.65785
-0.69316 0.39006996 -1.6578001
-0.68563497 0.39023501 -1.6585
-0.67658001 0.39203501 -1.65885
-0.66855001 0.39021999 -1.6585
-0.65289003 0.39006001 -1.6578
-0.63352501 0.39203 -1.65885
-0.62606001 0.39212999 -1.6592
-0.61021 0.39001 -1.6576
-0.60627997 0.39124751 -1.6591749
-0.58082998 0.39212 -1.6592
-0.57488334 0.39159 -1.6594
-0.56564003 0.39026332 -1.6586334
-0.55679333 0.39030662 -1.6588331
-0.54523331 0.39052001 -1.6597334
-0.53024 0.39030001 -1.6588
-0.52343661 0.39087668 -1.6588001
-0.51880997 0.39054 -1.6598001
-0.485854 0.39055198 -1.65844
-0.46343499 0.390315 -1.6589
-0.45763999 0.39026999 -1.6587
-0.4446075 0.39012751 -1.6580249
-0.43553498 0.39157501 -1.6587249
-0.42342338 0.39035332 -1.6590334
-0.41302001 0.39092335 -1.6589999
-0.40639666 0.39036334 -1.6590667
-0.39644 0.39194 -1.6584499
-0.38365331 0.39019334 -1.6583333
-0.37509 0.39004499 -1.6576999
-0.36682999 0.39026001 -1.65865
-0.34149 0.39006001 -1.6578
-0.33467752 0.390295 -1.6588
-0.32494 0.39031997 -1.6588999
-0.31461668 0.39011666 -1.6580334
-0.30535331 0.3901 -1.6579666
-0.27369499 0.39041501 -1.6593
-0.26267999 0.39046001 -1.6595
-0.25565499 0.39016998 -1.65825
-0.246115 0.390385 -1.6592
-0.237795 0.39103502 -1.6582501
-0.13248999 0.39184001 -1.658
-0.12703 0.39023 -1.6585
-0.11204 0.390275 -1.6587
-0.10795 0.39028001 -1.6587
-0.015160333 0.39041337 -1.6592668
-0.0069309501 0.39050001 -1.65965
0.01226 0.39056 -1.6599
0.036885999 0.39035001 -1.659
0.082384497 0.39046001 -1.6594501
0.096198499 0.39043 -1.6593499
0.1156125 0.39043 -1.65935
0.12538667 0.39050332 -1.6596667
0.16166 0.39046001 -1.6595
0.18689001 0.39039001 -1.6592
0.19251999 0.39038 -1.6592
0.20818 0.39052001 -1.6596999
0.22953001 0.39058 -1.66
0.23792 0.39041001 -1.6593
0.24086 0.39050001 -1.6596
0.25808999 0.39056 -1.6599
0.26514 0.390425 -1.6593499
0.27389002 0.39054501 -1.65985
0.28674999 0.39041999 -1.6593
0.29813999 0.39024001 -1.6586
0.30247501 0.39023 -1.6585
0.34814 0.39048001 -1.6596
0.35113999 0.39052999 -1.6598001
0.38572332 0.39047667 -1.6595665
0.406115 0.390405 -1.65925
0.41658503 0.39116499 -1.6588
0.42267001 0.39118999 -1.6589
0.40974 0.40075001 -1.654
-0.13536 0.41273999 -1.659
-0.80097997 0.35519999 -1.6416
-0.78899997 0.36548001 -1.6415
-0.77083999 0.37935001 -1.641
-0.51924002 0.37959 -1.642
-0.50178999 0.37948 -1.6416
-0.49492332 0.37933335 -1.6409334
-0.48456001 0.37946332 -1.6415
-0.47852999 0.37918001 -1.6403
-0.44440001 0.37915 -1.6402
-0.43031001 0.37915999 -1.6402
-0.42492667 0.37942001 -1.6413335
-0.415095 0.37941998 -1.6413
-0.39555749 0.3794975 -1.64165
-0.38441503 0.37951499 -1.6417251
-0.37740999 0.37946001 -1.6415
-0.353755 0.37936002 -1.64105
-0.34677997 0.37927666 -1.6407
-0.33301499 0.37931001 -1.6408
-0.32747999 0.37926999 -1.6407
-0.31387666 0.37948334 -1.6415666
-0.30557665 0.37936333 -1.6411
-0.28245503 0.37961501 -1.6421499
-0.27419749 0.37949252 -1.6416249
-0.26455334 0.37928334 -1.6407
-0.25551334 0.3793433 -1.6409999
-0.24004 0.37915999 -1.6402
-0.1253075 0.37929749 -1.6408
-0.114555 0.37956002 -1.6419249
-0.1051275 0.37909502 -1.64185
-0.095699996 0.37958002 -1.642
-0.088968001 0.37952 -1.6418
-0.071447998 0.37970501 -1.64255
-0.064195596 0.37877002 -1.6416
-0.056117199 0.37906399 -1.64132
-0.044105336 0.37924334 -1.6406001
-0.035056997 0.37961999 -1.6421666
-0.026962003 0.37961665 -1.6422
-0.015256667 0.37963668 -1.6422666
-0.0053396667 0.37966332 -1.6423668
0.0041478951 0.37973499 -1.6427
0.014009501 0.37896332 -1.6419168
0.0283655 0.37928 -1.6407
0.033874497 0.37951499 -1.64175
0.046156332 0.37968335 -1.6424665
0.05560175 0.37952 -1.6417249
0.063834496 0.37967002 -1.6424
0.074799247 0.37979999 -1.6429749
0.082912505 0.37965 -1.6423
0.097719997 0.37755001 -1.6409
0.10336 0.3786875 -1.642
0.11449 0.37980667 -1.6430334
0.122545 0.37867001 -1.64195
0.13642667 0.37970331 -1.6425333
0.14461 0.37956667 -1.6419998
0.15569998 0.37963 -1.6422
0.162765 0.37981999 -1.64305
0.17505999 0.37957001 -1.6419667
0.18483999 0.3796325 -1.6422501
0.19432332 0.37931332 -1.6408333
0.20367001 0.3788 -1.6412001
0.21156999 0.37986001 -1.6432
0.224944 0.37941003 -1.64282
0.23523501 0.37961 -1.6421499
0.24379501 0.379715 -1.64255
0.25814998 0.37990999 -1.6434
0.26488999 0.37955335 -1.6419333
0.27173501 0.37930501 -1.6408501
0.28483668 0.37955666 -1.6419001
0.29429999 0.37948334 -1.6416
0.31371999 0.37970501 -1.64255
0.32502002 0.37948501 -1.6416
0.33241498 0.37961 -1.6421499
0.344145 0.37968498 -1.6425
0.35561502 0.37952501 -1.6417501
0.36589003 0.37954 -1.6418
0.376335 0.37965 -1.64235
0.38380668 0.37972 -1.6426001
0.39359 0.37908664 -1.6424667
0.40448666 0.37965667 -1.6423334
0.41329667 0.37955999 -1.6419334
-0.77114004 0.38270664 -1.6434666
-0.7641986 0.38315144 -1.6450001
-0.75474709 0.38276431 -1.6454287
-0.74560404 0.383398 -1.64692
-0.73443377 0.38288125 -1.6445
-0.72446495 0.38238832 -1.6432832
-0.71465778 0.38377333 -1.6464
-0.70532709 0.38329285 -1.6456143
-0.69494009 0.38330165 -1.6447667
-0.68487328 0.38371 -1.6453667
-0.67476577 0.38304427 -1.6455859
-0.66469336 0.38280168 -1.6450833
-0.655958 0.38272801 -1.6454799
-0.64424425 0.38377428 -1.6455715
-0.63562173 0.38271165 -1.6446834
-0.62601715 0.38304001 -1.6455858
-0.61529857 0.38254145 -1.6444714
-0.60542828 0.38263667 -1.6443501
-0.59518874 0.38278499 -1.645
-0.58494163 0.38290334 -1.6454834
-0.57536566 0.38313431 -1.6459714
-0.56501573 0.38274142 -1.6453286
-0.55471712 0.38312715 -1.6459427
-0.54425567 0.38258001 -1.6446428
-0.5344128 0.38328001 -1.6465999
-0.52411836 0.38253498 -1.6451167
-0.51396251 0.38260001 -1.6459999
-0.50586671 0.38302502 -1.6472334
-0.49450001 0.38302836 -1.6460334
-0.48479497 0.3829217 -1.6455666
-0.47483 0.38255572 -1.6445428
-0.46661001 0.38269502 -1.6464251
-0.45499748 0.38140252 -1.6426749
-0.44459 0.383145 -1.6465498
-0.43627802 0.38257399 -1.64626
-0.42542857 0.38331288 -1.6467571
-0.41575143 0.38308001 -1.6467857
-0.40499875 0.383075 -1.64625
-0.39550331 0.38345835 -1.6478834
-0.38510251 0.3819325 -1.64495
-0.37403333 0.38317168 -1.6478666
-0.36441997 0.38301834 -1.646
-0.35460171 0.38262999 -1.6455332
-0.34519836 0.38332164 -1.6473166
-0.33529714 0.38319713 -1.6472857
-0.32455122 0.38349503 -1.6480376
-0.31407249 0.38289249 -1.647275
-0.30403832 0.38274503 -1.64605
-0.296105 0.38275498 -1.646675
-0.28471202 0.382164 -1.6445
-0.27485251 0.38236499 -1.6468501
-0.26379499 0.38253498 -1.645725
-0.25516286 0.38314 -1.6470426
-0.24490251 0.38262501 -1.6479499
-0.23631501 0.38161498 -1.6436
-0.13216999 0.38295501 -1.6457
-0.12517601 0.38290802 -1.6477001
-0.11434801 0.38267201 -1.6466999
-0.10515333 0.38231 -1.6465667
-0.095694996 0.382525 -1.647475
-0.083540343 0.38222668 -1.6461998
-0.074087001 0.38214248 -1.6458499
-0.063910998 0.38301501 -1.6477749
-0.055960201 0.382664 -1.6466401
-0.044322751 0.38237751 -1.64685
-0.034871999 0.38225666 -1.6463666
-0.025910998 0.38141999 -1.6451
-0.013171666 0.38240668 -1.6469666
-0.0043566502 0.38280249 -1.646875
0.0037120362 0.38295001 -1.64788
0.014107667 0.38284668 -1.6488667
0.025498001 0.38194001 -1.64675
0.0350255 0.38275626 -1.6466625
0.04385617 0.38230333 -1.6465501
0.054856669 0.3825233 -1.6474667
0.064455003 0.38260666 -1.6478333
0.075408496 0.38262248 -1.647925
0.085036665 0.38269666 -1.6482334
0.095380999 0.381845 -1.6469666
0.10530833 0.38159835 -1.6459001
0.11503 0.38229001 -1.6464667
0.12659201 0.381318 -1.6466401
0.13363498 0.38187748 -1.646525
0.1443025 0.38270998 -1.6483001
0.15457401 0.38240403 -1.6484001
0.16510999 0.38189501 -1.6484001
0.17386802 0.38217202 -1.6474202
0.18450999 0.38253334 -1.6475667
0.2081525 0.38154998 -1.6468999
0.21586999 0.38185802 -1.6475201
0.2249625 0.3822675 -1.6464
0.23470999 0.38213 -1.6458
0.24560499 0.382025 -1.647175
0.25466251 0.38146001 -1.646525
0.26473501 0.38236752 -1.64685
0.27616999 0.38147801 -1.64586
0.28506249 0.38266 -1.6480999
0.29519665 0.38272667 -1.6483666
0.30538288 0.38158998 -1.6465572
0.315135 0.38209501 -1.64745
0.325055 0.38150501 -1.6467251
0.33611751 0.38202751 -1.647175
0.34467599 0.38175201 -1.64704
0.35393199 0.381984 -1.6466202
0.36462498 0.38279 -1.6468251
0.374955 0.38239253 -1.646925
0.38558999 0.38259664 -1.6478
0.39489999 0.38111666 -1.6462334
0.40521997 0.38279253 -1.6486501
0.41555399 0.382916 -1.6462799
0.42142996 0.38147002 -1.64438
-0.78223002 0.36862999 -1.6327
-0.78223002 0.37024 -1.6323
-0.7720933 0.37498334 -1.6325001
-0.76485002 0.37742141 -1.6359857
-0.75423801 0.37666801 -1.6340001
-0.74528426 0.37738138 -1.6358286
-0.73394287 0.37685284 -1.6346
-0.72495204 0.37751597 -1.6361599
-0.71553427 0.37705141 -1.6354572
-0.70488667 0.37692499 -1.6343666
-0.6951257 0.37727717 -1.6353571
-0.68468332 0.376845 -1.6340166
-0.67508572 0.37687287 -1.6346858
-0.66486007 0.37752429 -1.6364
-0.65473664 0.37719333 -1.6355335
-0.64503002 0.37708998 -1.6356428
-0.63487571 0.37772861 -1.6373001
-0.62513667 0.37755832 -1.6371168
-0.61531377 0.37610373 -1.6337875
-0.60558635 0.37621909 -1.6345454
-0.59466833 0.37711835 -1.6352167
-0.58532 0.3771086 -1.6357143
-0.57484287 0.37738425 -1.6358001
-0.56490499 0.37603003 -1.6344299
-0.5550155 0.37642333 -1.6344
-0.54414284 0.37642142 -1.6338857
-0.53501141 0.37666431 -1.6337572
-0.52433664 0.37684 -1.6353222
-0.5149563 0.37591249 -1.6349249
-0.50650567 0.37668139 -1.6350001
-0.494984 0.37670797 -1.6357399
-0.48483834 0.37531665 -1.6339
-0.47420597 0.37734398 -1.63696
-0.46484333 0.37659663 -1.6351779
-0.45558697 0.375938 -1.63405
-0.44522601 0.37628901 -1.6355801
-0.43510303 0.37584001 -1.63442
-0.42502573 0.37496573 -1.6331856
-0.41510138 0.37620142 -1.6351856
-0.40451503 0.37622204 -1.6352699
-0.39470571 0.3753686 -1.6349286
-0.3850657 0.37497571 -1.6343857
-0.37422168 0.37724331 -1.63705
-0.36461502 0.37646598 -1.6355598
-0.355975 0.37557128 -1.6344124
-0.34367856 0.37574571 -1.6343001
-0.3355189 0.37596002 -1.6359111
-0.32445401 0.37554103 -1.6339
-0.31574574 0.37614283 -1.6360285
-0.30510715 0.37459713 -1.6327429
-0.29511416 0.37612832 -1.6348834
-0.28534889 0.37605774 -1.6354444
-0.27537283 0.37491861 -1.6341429
-0.26517999 0.37519503 -1.63475
-0.25470248 0.37567997 -1.6348751
-0.245452 0.375981 -1.6350501
-0.23691499 0.37730247 -1.6360501
-0.13189501 0.37701499 -1.6347499
-0.12474222 0.37493551 -1.6349334
-0.11490667 0.37479776 -1.6343112
-0.1057575 0.37526 -1.635025
-0.095708497 0.37504002 -1.6340624
-0.084609911 0.37629274 -1.6363091
-0.074793406 0.37592101 -1.6355702
-0.065555751 0.37480748 -1.6351
-0.054899145 0.37534571 -1.6359857
-0.044892445 0.37571442 -1.6356888
-0.034669284 0.37480855 -1.6336429
-0.025292289 0.37592858 -1.6373713
-0.01506478 0.37562218 -1.6352888
-0.0044263001 0.37545127 -1.6358874
0.0049609169 0.37533167 -1.6353334
0.015293166 0.37505999 -1.6355166
0.025149126 0.37526998 -1.6350751
0.035226624 0.37474 -1.634725
0.044986997 0.37565997 -1.6354166
0.054914251 0.37537754 -1.6355375
0.065213427 0.37535286 -1.6360143
0.073997997 0.37589833 -1.6364666
0.085452996 0.376185 -1.6366901
0.094426282 0.37577718 -1.6367571
0.105754 0.37526399 -1.6358601
0.11508221 0.37494001 -1.6349444
0.12523249 0.37480876 -1.6350124
0.13513167 0.37520167 -1.6348001
0.14483 0.37533873 -1.6353875
0.15519573 0.37515429 -1.635157
0.16547501 0.37513623 -1.6354625
0.17520499 0.37541997 -1.6357374
0.18561144 0.37520286 -1.6353571
0.19501285 0.37531999 -1.6347286
0.203944 0.37542599 -1.6365799
0.21398 0.37518114 -1.6360112
0.22418667 0.37495503 -1.6350666
0.23396599 0.37653601 -1.63816
0.24502501 0.37552124 -1.6361626
0.25536999 0.3750743 -1.6348286
0.26574776 0.37492555 -1.6357332
0.27511749 0.37481999 -1.6350875
0.28552717 0.37588426 -1.6371714
0.29424667 0.37617335 -1.6363668
0.30475858 0.37521717 -1.6342858
0.31501859 0.37498429 -1.6344
0.32535335 0.37590167 -1.6364833
0.33456001 0.375265 -1.6350666
0.34399 0.37532574 -1.6347429
0.35598624 0.37549624 -1.6350999
0.36606333 0.37556502 -1.6350168
0.37428856 0.37548715 -1.6343429
0.384655 0.37527999 -1.6351334
0.39593831 0.37526 -1.6350332
0.40511 0.37546167 -1.6359167
0.41425571 0.37491432 -1.6341
0.42348668 0.37604165 -1.6358
-0.77353001 0.38067001 -1.6395
-0.69176 0.38071001 -1.6397001
-0.68507332 0.38040003 -1.6383667
-0.67922002 0.38058001 -1.6391
-0.64718997 0.380595 -1.63915
0.41005 0.38692001 -1.6301
0.40531999 0.39387 -1.6322
0.41225001 0.39001 -1.6362
-0.78816998 0.35708001 -1.6269
-0.77059495 0.36843997 -1.6206501
-0.76528502 0.36895499 -1.6229
-0.75565004 0.36968997 -1.6223999
-0.74571329 0.36942664 -1.6213001
-0.73499161 0.36901498 -1.6219167
-0.72352666 0.36924997 -1.6204667
-0.71518666 0.36976334 -1.6227332
-0.69504005 0.36970252 -1.6224251
-0.67365503 0.36969 -1.6224
-0.66745996 0.36961001 -1.6221
-0.65434998 0.36990333 -1.6233333
-0.64490002 0.36963999 -1.6222
-0.63205004 0.36917332 -1.6226001
-0.62502253 0.3694225 -1.6231
-0.61360002 0.36963999 -1.6222
-0.60540503 0.36862502 -1.6214666
-0.5941267 0.36944333 -1.6213332
-0.58575332 0.36973667 -1.6226001
-0.57496005 0.36922398 -1.6218799
-0.54806 0.36984 -1.6231
-0.53841001 0.36746001 -1.6201
-0.52697998 0.36750001 -1.6202
-0.51299661 0.36828336 -1.6212
-0.5060125 0.36866501 -1.62165
-0.4947525 0.3683525 -1.6221501
-0.48386249 0.36811501 -1.6210999
-0.4758583 0.36899003 -1.6218333
-0.46348 0.36774501 -1.62135
-0.45565334 0.36785331 -1.6218333
-0.44498751 0.36854249 -1.6229749
-0.43548 0.36770499 -1.6212001
-0.42443499 0.36778501 -1.621525
-0.41510665 0.36981001 -1.6229
-0.40503752 0.36777747 -1.6215
-0.3942225 0.36803001 -1.6226001
-0.38357666 0.36846003 -1.6219667
-0.37555751 0.36872 -1.621875
-0.36510333 0.36769 -1.6210999
-0.35557249 0.367735 -1.6213
-0.34491253 0.36807251 -1.6228
-0.33524999 0.36789331 -1.6220332
-0.3258175 0.36800748 -1.622475
-0.3149775 0.368025 -1.62255
-0.30434501 0.36835498 -1.624025
-0.29475334 0.36813 -1.6230668
-0.28399333 0.36820999 -1.6233999
-0.27469248 0.36845499 -1.624475
-0.26229 0.36787999 -1.6219
-0.25564751 0.36803001 -1.622625
-0.24488001 0.36793751 -1.622175
-0.2348475 0.36838502 -1.6222751
-0.13160001 0.36984 -1.6231
-0.12405667 0.36757663 -1.6230501
-0.1143375 0.36845249 -1.62445
-0.10501334 0.3679333 -1.6222
-0.095717996 0.36831 -1.6238
-0.084309995 0.36740202 -1.62132
-0.074437 0.36849001 -1.624625
-0.065166667 0.3680867 -1.6228666
-0.055832997 0.36835003 -1.624
-0.045187503 0.36833 -1.62395
-0.034514248 0.36846498 -1.6245251
-0.025178999 0.36852667 -1.6248001
-0.015920751 0.3682175 -1.623425
-0.004749157 0.36729145 -1.6225144
0.0045922203 0.36781597 -1.6231201
0.014837332 0.36843333 -1.6243668
0.025052333 0.36780334 -1.6240665
0.034926753 0.368485 -1.6246001
0.045659002 0.36849251 -1.624625
0.055142 0.36869335 -1.6255335
0.064211749 0.36796999 -1.6223249
0.075339794 0.36787203 -1.6234
0.086034998 0.367414 -1.6228399
0.094472423 0.36743715 -1.6231428
0.10446715 0.36737284 -1.6228857
0.11551333 0.36757001 -1.6230332
0.12511666 0.36748835 -1.6239001
0.13460501 0.36745504 -1.62375
0.145174 0.36787 -1.6234001
0.1543825 0.36788499 -1.623825
0.164685 0.36834753 -1.624
0.17611714 0.36752716 -1.6235428
0.185055 0.36770499 -1.6230249
0.1946325 0.368045 -1.6226499
0.20425001 0.367374 -1.62266
0.21379402 0.36785799 -1.62332
0.22421801 0.36773998 -1.6227801
0.23612499 0.36762249 -1.62265
0.24554501 0.36761165 -1.6232333
0.25360748 0.36766499 -1.6228249
0.26436752 0.36830249 -1.623775
0.27540749 0.36811 -1.622925
0.28566799 0.367322 -1.62242
0.29522336 0.36735165 -1.6233166
0.30369499 0.3675867 -1.6231166
0.31577998 0.36813599 -1.62454
0.32501337 0.36806667 -1.6227666
0.33623168 0.36771834 -1.6236668
0.34483001 0.36706164 -1.6220165
0.35433 0.36742398 -1.62288
0.36384249 0.36803249 -1.6226
0.37325001 0.36726803 -1.6222
0.38481 0.36844751 -1.6244249
0.39472666 0.36820999 -1.6233999
0.40448749 0.36785501 -1.621825
0.41536251 0.36782253 -1.6235249
0.42260334 0.36673665 -1.6218001
-0.77169001 0.37142998 -1.6262
-0.76469755 0.37192249 -1.6264499
-0.75417995 0.37222001 -1.6258334
-0.74540329 0.37257668 -1.6274
-0.73482007 0.37195334 -1.6246667
-0.72495747 0.3725225 -1.6271501
-0.71464998 0.37284335 -1.6285334
-0.70580834 0.3714 -1.62605
-0.69568998 0.37260333 -1.6274999
-0.68482858 0.37144285 -1.6256857
-0.6756025 0.37208 -1.627125
-0.66434002 0.37182 -1.62714
-0.65629667 0.37275001 -1.6281667
-0.64441597 0.37216201 -1.62708
-0.63506502 0.37176749 -1.6257501
-0.6248275 0.3728025 -1.6283751
-0.61685997 0.37163502 -1.6271
-0.60398 0.37013 -1.6243
-0.59520501 0.37284252 -1.6285499
-0.58502001 0.37293002 -1.6289001
-0.57485253 0.373005 -1.629225
-0.56493247 0.37050751 -1.626
-0.55338401 0.371454 -1.6270599
-0.54492253 0.371575 -1.6268251
-0.53520715 0.37112144 -1.6253999
-0.52538145 0.37147999 -1.6269428
-0.51556504 0.370285 -1.625
-0.50445503 0.3717975 -1.625875
-0.49489832 0.37173 -1.6275166
-0.48625499 0.37163502 -1.627075
-0.47516668 0.37268338 -1.6278334
-0.46593499 0.37131333 -1.6269499
-0.45376751 0.37120751 -1.6271501
-0.44532335 0.37031332 -1.6251
-0.43490997 0.37015 -1.6244
-0.42554247 0.37054747 -1.6261749
-0.41523501 0.37309498 -1.62965
-0.40635601 0.37087598 -1.6260601
-0.39508998 0.37063 -1.62655
-0.38681501 0.37064499 -1.6266
-0.37415999 0.37201199 -1.62798
-0.36549801 0.370828 -1.62586
-0.35374749 0.37097001 -1.626075
-0.34588602 0.37098399 -1.6265399
-0.33458999 0.37050998 -1.626
-0.32482001 0.37017 -1.6245002
-0.31487599 0.37109199 -1.6270201
-0.30478752 0.37069002 -1.626775
-0.29522002 0.37056336 -1.6262335
-0.28593501 0.37090001 -1.627725
-0.27498001 0.37063253 -1.6265252
-0.26405001 0.370345 -1.625275
-0.25466332 0.37042332 -1.6256
-0.24530999 0.37055498 -1.6261749
-0.23603334 0.37226334 -1.6272001
-0.13176 0.37307 -1.6295
-0.12639999 0.3712 -1.6290334
-0.11304667 0.37094665 -1.6279
-0.1043725 0.37106499 -1.6265
-0.095710754 0.37081748 -1.6273501
-0.085046001 0.37097251 -1.6280251
-0.074386254 0.37089249 -1.62765
-0.065046333 0.37096667 -1.6279999
-0.05568175 0.37119502 -1.629025
-0.044985503 0.37129 -1.6294249
-0.034352999 0.37097999 -1.6280501
-0.025021331 0.37088665 -1.6276666
-0.01565275 0.37095001 -1.62795
-0.0049774246 0.37086749 -1.627575
0.0057363748 0.37088501 -1.62765
0.015129332 0.37094331 -1.6279
0.02458475 0.371135 -1.62875
0.035819333 0.37124333 -1.6292
0.044004999 0.3714025 -1.6279751
0.054173749 0.37116 -1.62885
0.064761251 0.37075251 -1.62705
0.075881802 0.37120801 -1.6274999
0.085058004 0.37085998 -1.6275001
0.094600499 0.37099499 -1.6281
0.1054275 0.37096 -1.627975
0.11363 0.37105 -1.6284
0.12584001 0.3710033 -1.6281667
0.1352825 0.37085998 -1.627525
0.14490665 0.37096 -1.6279665
0.1542875 0.3706975 -1.626825
0.16422333 0.37115332 -1.6288333
0.17494667 0.37081334 -1.6273333
0.18481252 0.371095 -1.6285499
0.1954775 0.37064749 -1.6266
0.20557 0.37111998 -1.6286668
0.2167 0.37114334 -1.6288
0.22476999 0.37084666 -1.6274667
0.23465835 0.37153998 -1.6279665
0.24442001 0.37096334 -1.6279665
0.2544575 0.37118 -1.62895
0.26569501 0.37116501 -1.62885
0.27706999 0.37124503 -1.6292
0.28489 0.37063998 -1.626575
0.29566997 0.37156001 -1.62752
0.3049075 0.37075999 -1.627075
0.31524333 0.37105 -1.6283668
0.32476601 0.37120399 -1.62752
0.33497 0.37075999 -1.6271
0.34503803 0.37085399 -1.62596
0.35482001 0.37048665 -1.6258999
0.36307499 0.37110749 -1.626675
0.3743825 0.37096751 -1.628
0.38453498 0.37132251 -1.62765
0.39439249 0.37061748 -1.626475
0.40466666 0.37059331 -1.6264
0.41392002 0.37085 -1.6274667
0.4224433 0.37115332 -1.6262666
0.016321 0.35855001 -1.6104
0.13903999 0.35852 -1.6102999
0.23593 0.35864002 -1.6108501
-0.77142 0.3633 -1.6164
-0.76572752 0.36480248 -1.613875
-0.75545114 0.36513335 -1.6146998
-0.74369502 0.36516666 -1.6136335
-0.73598999 0.36481249 -1.6138999
-0.7253437 0.36493248 -1.6144251
-0.71470863 0.36508146 -1.6148142
-0.70576334 0.36494997 -1.6147112
-0.69380248 0.36612752 -1.616025
-0.6858843 0.36510569 -1.6149572
-0.67509377 0.36546877 -1.614975
-0.66451997 0.36487749 -1.6150999
-0.65610999 0.36543876 -1.6166625
-0.64528662 0.36563 -1.6156834
-0.63600665 0.36542499 -1.6148001
-0.62548333 0.36539665 -1.6158667
-0.61525428 0.36608002 -1.6171571
-0.60470754 0.36447251 -1.6142499
-0.59477252 0.36553746 -1.6162001
-0.58460289 0.36583999 -1.6171571
-0.57521999 0.365522 -1.6159401
-0.56448728 0.36475545 -1.6148182
-0.55525428 0.36539143 -1.6161858
-0.54532361 0.36459544 -1.6147546
-0.53529781 0.36454779 -1.6153778
-0.52516001 0.36449781 -1.6143222
-0.51611745 0.36426753 -1.6151626
-0.50506711 0.36433998 -1.6136428
-0.49507502 0.36415249 -1.61465
-0.48470333 0.36409166 -1.6150001
-0.47441 0.36372998 -1.6136999
-0.46590334 0.36464557 -1.615811
-0.45419857 0.36396429 -1.6140858
-0.44570571 0.36398003 -1.6152142
-0.43565446 0.36427113 -1.6149555
-0.42565376 0.36383 -1.6150625
-0.414992 0.365022 -1.61667
-0.40476331 0.36266109 -1.6127666
-0.39576223 0.36351216 -1.6149001
-0.38476372 0.36426252 -1.6151124
-0.37555224 0.36442 -1.615611
-0.36526501 0.36381626 -1.6150124
-0.35563168 0.36451998 -1.6169
-0.34480715 0.36338001 -1.6146715
-0.33524752 0.36360997 -1.6141126
-0.32464004 0.36350712 -1.6141714
-0.31565997 0.36344779 -1.614589
-0.30491126 0.36322626 -1.6142375
-0.29510501 0.36407623 -1.6161625
-0.2852082 0.36327454 -1.6143092
-0.2749778 0.36291224 -1.6138664
-0.26561397 0.36458498 -1.6162001
-0.25501907 0.36290181 -1.614
-0.2443825 0.36348999 -1.614475
-0.23605874 0.36330125 -1.614575
-0.131455 0.36599499 -1.61725
-0.12566666 0.36355165 -1.61505
-0.11386636 0.36335093 -1.6159911
-0.10534715 0.3635357 -1.6153429
-0.095367722 0.3628718 -1.6138637
-0.085012883 0.36326671 -1.6154555
-0.075021997 0.36371779 -1.6158222
-0.064024404 0.36302602 -1.6152198
-0.055429503 0.36367503 -1.6153125
-0.045178272 0.36303818 -1.6146001
-0.034966834 0.36286831 -1.6145167
-0.024368582 0.36294749 -1.6148752
-0.014628398 0.36255997 -1.6138999
-0.0059323371 0.36217627 -1.6132874
0.0052923178 0.3633489 -1.6158222
0.015084091 0.36324093 -1.6154999
0.025973875 0.36242375 -1.6144125
0.034423556 0.36324888 -1.6145664
0.045128219 0.36356002 -1.615111
0.055227187 0.36317182 -1.6152
0.065588728 0.36272544 -1.6145637
0.074811116 0.36306226 -1.6153998
0.084119603 0.362519 -1.61446
0.095328882 0.36195627 -1.614175
0.10545126 0.36225125 -1.6145624
0.11462222 0.36264002 -1.6143445
0.12479375 0.36179125 -1.6134499
0.135325 0.36141625 -1.6117749
0.14520332 0.36321336 -1.6160444
0.155233 0.36279902 -1.6142101
0.16473444 0.36272225 -1.6138667
0.17452112 0.36233443 -1.6146222
0.18536857 0.36412713 -1.6169144
0.19522272 0.36269093 -1.6144
0.20580599 0.36414999 -1.6171999
0.21524334 0.3626278 -1.6142775
0.22527802 0.36282799 -1.6143401
0.23484111 0.36308554 -1.6154778
0.24420874 0.36247626 -1.6146249
0.25655374 0.36357501 -1.616725
0.26533639 0.36322546 -1.6154362
0.275116 0.36274901 -1.61474
0.28411999 0.36264428 -1.6145713
0.29403001 0.36205748 -1.6127623
0.30579501 0.36265498 -1.6145
0.31429285 0.36305141 -1.6142571
0.324839 0.36304098 -1.6137998
0.33538288 0.36201856 -1.6128713
0.34542835 0.36269832 -1.6149832
0.35581002 0.36332199 -1.615
0.36411667 0.36375666 -1.6147332
0.3757157 0.36283427 -1.6143714
0.3841311 0.36328781 -1.6155334
0.39478555 0.36383891 -1.6163445
0.40518332 0.36286333 -1.614489
0.41398874 0.36250624 -1.61385
0.42270753 0.36309999 -1.615525
-0.77108002 0.35758501 -1.60605
-0.76541752 0.3579275 -1.603775
-0.75386798 0.35827601 -1.6030401
-0.74480999 0.35809597 -1.60378
-0.73613393 0.35810202 -1.60376
-0.72399002 0.35901001 -1.604825
-0.71377999 0.35821667 -1.6037999
-0.70584005 0.35805833 -1.6030833
-0.69456005 0.35880336 -1.6039
-0.68430001 0.35817 -1.6029501
-0.6756025 0.35919499 -1.605625
-0.66508001 0.35918999 -1.6056333
-0.65604001 0.35915336 -1.6054667
-0.645845 0.35929751 -1.6060749
-0.63563168 0.35768834 -1.6026999
-0.62562329 0.35869667 -1.6034001
-0.61461145 0.35793427 -1.6032428
-0.60522008 0.35796165 -1.6039333
-0.59493375 0.35790747 -1.6036875
-0.58506 0.35700625 -1.6024874
-0.57549798 0.35837203 -1.60348
-0.56559002 0.357945 -1.6038336
-0.55479872 0.35808873 -1.6045001
-0.54505998 0.3573471 -1.6028001
-0.53490871 0.35815877 -1.604825
-0.52497333 0.35815835 -1.6048168
-0.51515001 0.35822502 -1.6051126
-0.50501001 0.35838997 -1.6058
-0.49550572 0.35753998 -1.6047572
-0.4846386 0.35817859 -1.6043571
-0.47550431 0.35832572 -1.6061
-0.46520573 0.35824856 -1.6046572
-0.45500749 0.35823247 -1.6051376
-0.44394663 0.35753 -1.6032667
-0.43507999 0.35854429 -1.6059858
-0.42560503 0.35753667 -1.6032834
-0.41423145 0.35786995 -1.6040573
-0.40466428 0.35761714 -1.6050998
-0.39490253 0.35685 -1.6036749
-0.38488445 0.35796443 -1.6051888
-0.37488145 0.35849857 -1.6057714
-0.36479113 0.35735667 -1.6041557
-0.35572556 0.35801113 -1.6054
-0.34500599 0.357416 -1.60376
-0.33407876 0.35810876 -1.6055375
-0.32616857 0.3576043 -1.6050571
-0.31459859 0.35747856 -1.6044713
-0.30464 0.35849714 -1.6068857
-0.29485834 0.35822669 -1.6051
-0.28660426 0.35674572 -1.6033429
-0.275594 0.357584 -1.6045201
-0.26421833 0.35788667 -1.6048833
-0.25475499 0.3565675 -1.603375
-0.2457975 0.35804 -1.6061625
-0.23418832 0.35785666 -1.6047335
-0.13108 0.35758999 -1.60225
-0.12457801 0.35768002 -1.6049302
-0.11451665 0.35657224 -1.6040224
-0.10453428 0.35674283 -1.6044428
-0.096518405 0.356888 -1.6044401
-0.086022995 0.35727 -1.6061599
-0.074771091 0.35685796 -1.60429
-0.064298168 0.35650334 -1.6037165
-0.054394752 0.35800749 -1.606075
-0.046368226 0.35662556 -1.6042666
-0.036316331 0.35656834 -1.6040167
-0.024829499 0.35762501 -1.606275
-0.014640401 0.35700601 -1.6049999
-0.0045261346 0.35604 -1.6034571
0.0043497588 0.35686252 -1.6046749
0.01486425 0.35658249 -1.6043875
0.024762874 0.35683125 -1.6045874
0.034251999 0.35609859 -1.6037142
0.045051146 0.35758713 -1.6060429
0.054381143 0.35706145 -1.6047858
0.064684875 0.35626122 -1.6039249
0.074498832 0.35670498 -1.6046333
0.085296571 0.35606 -1.6035429
0.094508715 0.35644716 -1.6042143
0.105705 0.35695335 -1.6057667
0.11539444 0.3560189 -1.6040778
0.124055 0.35685751 -1.6046751
0.13368858 0.35579571 -1.6034286
0.14484125 0.35644624 -1.604725
0.15579399 0.35649601 -1.6042
0.16366333 0.35666502 -1.6044499
0.17548667 0.35679331 -1.6050333
0.18523778 0.35674888 -1.6048222
0.19409999 0.35635599 -1.6035601
0.20567 0.35766113 -1.6055332
0.21509999 0.35578778 -1.6030445
0.22444165 0.355975 -1.6026001
0.23456 0.35622668 -1.6050334
0.24469714 0.35610288 -1.6037285
0.25440699 0.35707504 -1.6060301
0.26424143 0.35651857 -1.6045142
0.27482665 0.35744667 -1.6054333
0.28544286 0.3569757 -1.6065999
0.29541126 0.35634497 -1.6042999
0.30498835 0.35615 -1.6034001
0.31503111 0.35731331 -1.6056777
0.32574001 0.356765 -1.6036333
0.33458287 0.35640001 -1.6040001
0.34496167 0.35753331 -1.6045332
0.35520625 0.35825875 -1.6052625
0.36482334 0.35675669 -1.6031668
0.374286 0.35766602 -1.60492
0.38667002 0.35648403 -1.60416
0.39528602 0.35727602 -1.60466
0.40498331 0.35615 -1.6034168
0.41477141 0.35616285 -1.604
0.42290333 0.35716334 -1.6029001
-0.7643134 0.36239997 -1.6075001
-0.75541997 0.36161 -1.60885
-0.74373245 0.36122501 -1.607175
-0.73364997 0.36162999 -1.6089998
-0.72290003 0.36167002 -1.6091501
-0.71649504 0.36153501 -1.60855
-0.70278001 0.36158001 -1.6087
-0.69581002 0.36206001 -1.6079401
-0.68605661 0.36130333 -1.6075001
-0.67533332 0.3615067 -1.6084
-0.66833997 0.36181998 -1.6098
-0.65308499 0.36166501 -1.6091
-0.64496332 0.3612667 -1.6073002
-0.63441253 0.36116752 -1.6069
-0.62476999 0.36160669 -1.6088667
-0.6146875 0.36174998 -1.6094999
-0.6040833 0.36154333 -1.6085666
-0.59566498 0.36177 -1.6096001
-0.58498502 0.36144251 -1.608125
-0.57479 0.36140999 -1.6079999
-0.56953001 0.36177 -1.6095999
-0.55358499 0.36170501 -1.6092999
-0.52344 0.36158001 -1.6088001
-0.50281334 0.36116001 -1.6094002
-0.49660501 0.3608 -1.60905
-0.48425999 0.36186001 -1.61
-0.45888999 0.36166 -1.6091
-0.4479 0.36017001 -1.61
-0.42159501 0.36010998 -1.60975
-0.35203999 0.36175001 -1.6095001
-0.34573331 0.36068666 -1.6097666
-0.32508999 0.36181 -1.6098
-0.31690001 0.36002001 -1.6093
-0.27678001 0.36008 -1.6095999
-0.26477498 0.360055 -1.6094501
-0.2369 0.36013001 -1.6098
-0.13119 0.36109999 -1.6066
-0.10494 0.36001 -1.6093
-0.099676996 0.36001 -1.6093
-0.087841004 0.36001 -1.6093
-0.070727997 0.36017999 -1.61
-0.068097003 0.36017001 -1.61
-0.057572 0.36012 -1.6098
0.0057247002 0.36012 -1.6098
0.037450999 0.36002001 -1.6093
0.045434002 0.36008 -1.6095999
0.15252 0.36012 -1.6098
0.16337 0.36015999 -1.61
0.185045 0.36008999 -1.6095999
0.20149 0.36017001 -1.61
0.22619 0.36017999 -1.61
0.2481 0.36001 -1.6093
0.28441 0.36012 -1.6098
0.29567999 0.36017001 -1.61
0.31248999 0.36008999 -1.6097
0.32670999 0.36014 -1.6099
0.38687 0.36006999 -1.6095001
0.41841331 0.36339667 -1.6070334
0.42421001 0.36126 -1.6073
-0.60009003 0.34907001 -1.5904
-0.50913 0.34900999 -1.5901
-0.46366 0.349235 -1.59115
-0.45116001 0.34911999 -1.5906
-0.44010001 0.34900999 -1.5901
-0.43520331 0.34954333 -1.5925666
-0.42679501 0.34933001 -1.59155
-0.37814999 0.34939 -1.5918
-0.36443999 0.34906 -1.5903
-0.34496331 0.34920001 -1.5909666
-0.33653 0.34920999 -1.5910499
-0.32469332 0.34939 -1.5918666
-0.31650999 0.34908 -1.5904335
-0.30853999 0.34904 -1.5901999
-0.29672998 0.34917 -1.59085
-0.28516999 0.34970999 -1.5933
-0.27577499 0.34941497 -1.5919499
-0.26921999 0.34948 -1.5922
-0.25482503 0.34959999 -1.5928
-0.24144 0.34903002 -1.5901999
-0.12172 0.349415 -1.5919499
-0.11393 0.34949002 -1.592325
-0.10484666 0.34974334 -1.5934668
-0.095744997 0.34951496 -1.5924
-0.086671673 0.34902334 -1.5901999
-0.074949503 0.34974748 -1.59345
-0.064563498 0.34959999 -1.5928001
-0.05419375 0.34938252 -1.5918
-0.045115333 0.34926999 -1.5913
-0.035555668 0.34940329 -1.5918666
-0.025548249 0.34957749 -1.5927
-0.015222499 0.34919 -1.59095
-0.0047387872 0.34943751 -1.592075
0.0057500498 0.34961 -1.59285
0.015612 0.34919333 -1.5909333
0.025318002 0.34952998 -1.5924667
0.035851002 0.34968999 -1.5932335
0.044779249 0.34913999 -1.5907
0.055459749 0.34955999 -1.5926249
0.066063501 0.34974998 -1.5935
0.075283669 0.34975997 -1.5935332
0.084308498 0.34940749 -1.591925
0.095072746 0.3497625 -1.593575
0.10524 0.34920803 -1.5925601
0.11336 0.34939498 -1.59185
0.12367666 0.34962001 -1.5928999
0.134655 0.34947503 -1.59225
0.14543751 0.34964997 -1.593075
0.15471999 0.34957334 -1.5926666
0.161525 0.34972501 -1.5933499
0.17527001 0.34906331 -1.5928999
0.18621667 0.34981334 -1.5937999
0.19481666 0.34938666 -1.5918001
0.204476 0.34900001 -1.5916401
0.21960001 0.34983 -1.5939
0.22508334 0.34987 -1.5940334
0.23410502 0.3489725 -1.59185
0.24526751 0.34960002 -1.5928
0.25500664 0.34974003 -1.5934668
0.26455 0.34966999 -1.593125
0.27405998 0.34955332 -1.5925999
0.2859025 0.34922749 -1.593025
0.29510751 0.349785 -1.5936501
0.30308998 0.34949499 -1.5922999
0.315005 0.34854665 -1.5918499
0.32363001 0.34917 -1.5908
0.33539334 0.34956333 -1.5926334
0.34187999 0.34915501 -1.59075
0.35413501 0.34981999 -1.5938001
0.36569667 0.34962666 -1.5928999
0.37475333 0.34931001 -1.5914999
0.38503748 0.34948748 -1.592325
0.39477 0.34927332 -1.5913334
0.40162498 0.34904999 -1.5903
-0.76411837 0.35283163 -1.5947332
-0.75512004 0.35295749 -1.5937376
-0.74513751 0.35241124 -1.5931625
-0.73419166 0.35286167 -1.5936166
-0.7253986 0.35435995 -1.5958856
-0.71560431 0.35381284 -1.5944998
-0.70489424 0.35298428 -1.5950859
-0.69555253 0.35344374 -1.5940499
-0.68549556 0.35355446 -1.5946333
-0.67490333 0.35342225 -1.5949
-0.66499096 0.35334998 -1.5945801
-0.65445697 0.35360798 -1.5949899
-0.64449 0.353508 -1.5952899
-0.63450712 0.35299999 -1.5951427
-0.62516624 0.35358876 -1.5947125
-0.61568004 0.35384834 -1.5968332
-0.60586333 0.35237333 -1.5939332
-0.59415996 0.35296398 -1.59436
-0.58529198 0.351868 -1.59392
-0.57458001 0.35385147 -1.5957429
-0.56458372 0.35266 -1.5942875
-0.55529708 0.35288572 -1.5957143
-0.54461163 0.35208002 -1.5938667
-0.53506148 0.35261998 -1.5945143
-0.52384251 0.3528775 -1.5943251
-0.51493752 0.35265753 -1.5952251
-0.50443715 0.3528614 -1.5956143
-0.49449167 0.35245168 -1.5955666
-0.48466855 0.35265571 -1.5946857
-0.47475502 0.3528775 -1.5962125
-0.46407717 0.35240999 -1.5946571
-0.45480427 0.3531529 -1.5969286
-0.44489002 0.3524814 -1.5949571
-0.43454874 0.35262501 -1.5950874
-0.42512664 0.35276332 -1.5957333
-0.41530877 0.3524875 -1.5944625
-0.40517715 0.35253572 -1.5952142
-0.39397001 0.3524875 -1.59635
-0.38571 0.35245666 -1.5956
-0.37473249 0.35250747 -1.5945374
-0.36581603 0.35229999 -1.59436
-0.35525998 0.35253003 -1.5959167
-0.34550253 0.35287875 -1.5962374
-0.33510002 0.35238856 -1.5945429
-0.32352284 0.35271713 -1.5960284
-0.314244 0.35267001 -1.59604
-0.30546248 0.35281 -1.5959251
-0.29492122 0.35292873 -1.5964625
-0.28411201 0.35285002 -1.59688
-0.27561429 0.35243997 -1.5947858
-0.2658025 0.35288501 -1.5962374
-0.25556713 0.35302141 -1.5974143
-0.24537858 0.35296711 -1.5971859
-0.2348057 0.35307285 -1.5965716
-0.22984999 0.35108 -1.5919
-0.130955 0.353185 -1.5976
-0.12442666 0.35287499 -1.5974666
-0.1139825 0.35212252 -1.5966001
-0.10486334 0.35214338 -1.5967001
-0.095183 0.3530114 -1.5973856
-0.08476685 0.3526943 -1.5959285
-0.07490325 0.35199749 -1.59605
-0.064434499 0.35303 -1.5982
-0.054562859 0.35309857 -1.5977715
-0.044939667 0.35194668 -1.5958
-0.034894165 0.35272002 -1.5967833
-0.025290001 0.35313749 -1.5974
-0.014652714 0.35298714 -1.5972716
-0.0044445852 0.35206249 -1.596375
0.0060585751 0.35218751 -1.5969
0.015122 0.35188332 -1.5955
0.024135599 0.35248402 -1.59672
0.035832334 0.35257497 -1.5974001
0.044423331 0.35245499 -1.5955666
0.055444747 0.35292 -1.598325
0.064026996 0.35254502 -1.5985249
0.075443335 0.35301664 -1.5981334
0.085090749 0.35240251 -1.59785
0.096323401 0.35245198 -1.59658
0.1043525 0.35286498 -1.5980749
0.11383667 0.35239998 -1.5978667
0.12558624 0.35278624 -1.5977001
0.1368725 0.351915 -1.59755
0.14607501 0.35211 -1.596525
0.15401001 0.35296801 -1.5974
0.16620626 0.35213622 -1.5966749
0.1754657 0.35195568 -1.5969429
0.1853075 0.35202748 -1.5980749
0.19560333 0.35288167 -1.5975
0.20446801 0.35238999 -1.5962799
0.21480998 0.35112998 -1.5967
0.2245525 0.35231 -1.59745
0.23593199 0.35162801 -1.5959001
0.24511999 0.35236001 -1.5976666
0.25457001 0.35262334 -1.5988668
0.264725 0.35244501 -1.5961751
0.27436125 0.35341626 -1.5986625
0.2851325 0.35234001 -1.5976
0.29441667 0.35196665 -1.5958999
0.30452001 0.352245 -1.5971501
0.31542668 0.35201332 -1.5961
0.3239575 0.35249501 -1.596375
0.33499998 0.35245401 -1.59658
0.34545168 0.35312834 -1.5973667
0.35493001 0.35239503 -1.5959375
0.36567801 0.35285997 -1.59842
0.37481716 0.35304004 -1.5975143
0.38369197 0.35294598 -1.5972799
0.39533001 0.35218 -1.59685
0.40542331 0.35215667 -1.5967666
0.4153975 0.35203251 -1.5962
0.42418402 0.35215202 -1.5937001
0.42061001 0.36052999 -1.5968
-0.77174997 0.34468001 -1.5855
-0.76425427 0.34653285 -1.5842428
-0.75446796 0.34634799 -1.58258
-0.74563503 0.34742999 -1.5854334
-0.7356233 0.34677336 -1.5837332
-0.72560668 0.34791002 -1.5851001
-0.71417004 0.346975 -1.5833665
-0.70430666 0.34787667 -1.5849667
-0.69427747 0.34735 -1.58445
-0.68478572 0.34685716 -1.5835714
-0.67499751 0.34702998 -1.583025
-0.66494 0.34761667 -1.5837666
-0.65433997 0.34731799 -1.5839601
-0.64489996 0.34656572 -1.5833285
-0.63510162 0.34657833 -1.58285
-0.62580752 0.34649 -1.5833875
-0.61454284 0.34682712 -1.5834428
-0.60434002 0.34667426 -1.583843
-0.59412497 0.34722164 -1.5857834
-0.58542335 0.34716666 -1.5855333
-0.57498378 0.34688124 -1.5842249
-0.56452 0.34684286 -1.5846144
-0.55524498 0.34698665 -1.5847
-0.54465222 0.34633446 -1.5830001
-0.53482425 0.34719291 -1.5850999
-0.52530003 0.34630251 -1.5834875
-0.51492602 0.34641099 -1.5843599
-0.50416005 0.34678602 -1.5845801
-0.4946875 0.34669629 -1.5833999
-0.48470196 0.34626299 -1.58442
-0.47502005 0.3461678 -1.5839112
-0.46624127 0.34582251 -1.5841374
-0.45579335 0.347155 -1.5855168
-0.44516125 0.34651753 -1.5844624
-0.43434399 0.34579399 -1.5846201
-0.42553431 0.34614855 -1.5846857
-0.41517714 0.34690145 -1.5848857
-0.40505496 0.34711501 -1.5853
-0.39513853 0.34752283 -1.5866286
-0.38519916 0.34618333 -1.5848083
-0.37479502 0.34580702 -1.5846201
-0.36436099 0.34594598 -1.58448
-0.35437748 0.34738624 -1.5865375
-0.34483501 0.34529501 -1.5836126
-0.33479002 0.34536666 -1.5836222
-0.32508668 0.34535664 -1.5835888
-0.31436625 0.34589127 -1.5853876
-0.30498597 0.346313 -1.5861801
-0.29531777 0.34550443 -1.5842556
-0.28574109 0.34558114 -1.5845889
-0.27543801 0.34550202 -1.58328
-0.26407272 0.34614092 -1.5853183
-0.25566 0.34536999 -1.58416
-0.24558714 0.34652999 -1.585343
-0.23524545 0.34591815 -1.5842999
-0.22909501 0.34685999 -1.5841501
-0.13062499 0.34685999 -1.58415
-0.12469699 0.34591198 -1.5851099
-0.11512 0.34526667 -1.5844332
-0.1060825 0.34527498 -1.5844624
-0.0952399 0.34474704 -1.5842899
-0.084986225 0.34571111 -1.5852
-0.074996457 0.34422451 -1.583382
-0.064770497 0.34518003 -1.5840501
-0.055265501 0.34567499 -1.58505
-0.044075128 0.34531876 -1.5846876
-0.035326429 0.34600854 -1.5862
-0.025953999 0.34537128 -1.5848999
-0.015478099 0.34629899 -1.58689
-0.0052558999 0.34526002 -1.5844251
0.0049778889 0.34501669 -1.5845332
0.016140727 0.34520456 -1.5851363
0.02510611 0.34449223 -1.5837667
0.035004251 0.34528002 -1.5844876
0.044835143 0.34573284 -1.5860428
0.054921776 0.34488887 -1.5839444
0.064520702 0.34490004 -1.5849999
0.07561937 0.34556875 -1.5858375
0.085362568 0.3451457 -1.5844142
0.094564438 0.34570715 -1.5859429
0.10476 0.34556001 -1.5863285
0.11556599 0.34556499 -1.58577
0.12516887 0.34496775 -1.5859667
0.13480636 0.34528548 -1.5854818
0.1445757 0.34549716 -1.5849714
0.15459777 0.34490889 -1.5840334
0.1651375 0.34445333 -1.584425
0.17434125 0.34430623 -1.5837625
0.18515858 0.34619713 -1.5881716
0.19471376 0.34542 -1.5851375
0.20547572 0.34467855 -1.5844142
0.21480727 0.34469911 -1.5848817
0.22509301 0.344733 -1.5849701
0.23371501 0.34453249 -1.5847751
0.24449286 0.34605858 -1.5875429
0.25438249 0.3455475 -1.5857501
0.26456574 0.34529001 -1.5850857
0.27562547 0.34509638 -1.5846363
0.28564146 0.34497854 -1.5846999
0.29456142 0.34507713 -1.5841143
0.30473626 0.34605002 -1.5861125
0.31624573 0.34441712 -1.585343
0.32550454 0.34616452 -1.5854363
0.33630666 0.34577665 -1.5867834
0.34509462 0.34509003 -1.5844309
0.35535336 0.3453033 -1.5846167
0.36534715 0.34566855 -1.5868428
0.37458375 0.34518 -1.584975
0.38534874 0.3454175 -1.58515
0.39482713 0.34473854 -1.5835999
0.405204 0.34575301 -1.58438
0.41554698 0.34673601 -1.5866001
