0.0615753 0.206416 0.311106 -0.060297 0.753522 0.654651
0.0731828 0.207666 0.311093 -0.0573555 0.845679 0.530601
0.0871036 0.208405 0.310696 -0.0529433 0.831491 0.553009
0.0989416 0.209604 0.310645 -0.0568149 0.779943 0.623267
0.112167 0.210498 0.310364 0.00799303 0.798855 0.601471
0.130257 0.210318 0.309279 0.0367935 0.790512 0.61134
0.147186 0.210396 0.308386 0.2124 0.849866 0.482301
0.282937 0.184318 0.287858 0.203351 0.435212 0.877062
0.325102 0.178839 0.282794 0.187641 0.743773 0.641554
0.381625 0.170202 0.275358 0.215484 0.774767 0.594392
0.478205 0.152746 0.261303 0.219486 0.586753 0.779453
-0.193667 -0.279401 0.0865575 -0.666745 -0.691267 0.278572
-0.197411 -0.274772 0.089081 -0.579384 -0.744408 0.331919
-0.203021 -0.269732 0.0919128 -0.579446 -0.758758 0.297537
-0.207464 -0.264951 0.0945507 -0.658944 -0.658659 0.363264
-0.209341 -0.260732 0.0967657 -0.677862 -0.482895 0.55436
-0.209821 -0.256822 0.0987496 -0.769219 -0.425791 0.476449
-0.211231 -0.252708 0.100887 -0.747821 -0.448561 0.489444
-0.211941 -0.248747 0.102909 -0.76923 -0.425685 0.476528
-0.21312 -0.244683 0.105008 -0.758188 -0.444669 0.476887
-0.214061 -0.240672 0.107068 -0.802571 -0.362249 0.473979
-0.214307 -0.236814 0.109013 -0.708514 -0.335419 0.620889
-0.214317 -0.233007 0.110919 -0.730676 -0.325624 0.600068
-0.214559 -0.229149 0.112863 -0.762655 -0.291163 0.577565
-0.214336 -0.225394 0.114731 -0.734272 -0.359177 0.576054
-0.215278 -0.221382 0.116791 -0.649661 -0.5697 0.503372
-0.218314 -0.21691 0.119197 -0.676908 -0.455618 0.578107
-0.217158 -0.21336 0.120911 -0.834086 -0.269089 0.481552
-0.218564 -0.209246 0.123048 -0.747986 -0.402799 0.527513
-0.218572 -0.20544 0.124953 -0.736566 -0.391228 0.551735
-0.219746 -0.201377 0.127052 -0.703264 -0.3875 0.596041
-0.219518 -0.197623 0.128918 -0.67369 -0.331841 0.660321
-0.219759 -0.193766 0.130863 -0.71707 -0.471767 0.513076
-0.221862 -0.189499 0.133115 -0.652076 -0.40415 0.641452
-0.220703 -0.185949 0.134827 -0.768752 -0.36068 0.528138
-0.222806 -0.181682 0.137079 -0.646991 -0.448824 0.616409
-0.222345 -0.177979 0.138908 -0.77176 -0.265573 0.577804
-0.222583 -0.174123 0.140852 -0.79151 -0.366847 0.48881
-0.22352 -0.170112 0.142911 -0.75762 -0.365467 0.540782
-0.223523 -0.166307 0.144816 -0.760084 -0.271891 0.590209
-0.223295 -0.162553 0.146682 -0.704594 -0.402363 0.584509
-0.224695 -0.158441 0.148818 -0.660129 -0.385834 0.644486
-0.223999 -0.154789 0.150608 -0.738495 -0.22203 0.636654
-0.223769 -0.151036 0.152474 -0.747959 -0.447253 0.490431
-0.2261 -0.146718 0.154764 -0.705643 -0.417223 0.572707
-0.225172 -0.143118 0.156515 -0.710599 -0.350668 0.609984
-0.226571 -0.139006 0.15865 -0.768769 -0.360023 0.528561
-0.226106 -0.135304 0.160478 -0.6845 -0.211226 0.697741
-0.225175 -0.131705 0.162229 -0.629848 -0.331258 0.702538
-0.225874 -0.127746 0.164249 -0.762569 -0.289685 0.578421
-0.225176 -0.124096 0.166038 -0.745521 -0.259107 0.614055
-0.225409 -0.12024 0.167981 -0.748069 -0.401585 0.528319
-0.226574 -0.116179 0.170077 -0.813154 -0.319145 0.486753
-0.226106 -0.112478 0.171905 -0.757655 -0.364644 0.541288
-0.227504 -0.108366 0.17404 -0.667621 -0.297662 0.682407
-0.225639 -0.104972 0.175636 -0.728291 -0.306509 0.612898
-0.2275 -0.100759 0.177848 -0.747485 -0.460913 0.478356
-0.227963 -0.0968521 0.179829 -0.816041 -0.215534 0.536305
-0.22703 -0.0932532 0.181579 -0.658502 -0.162498 0.734826
-0.225864 -0.0897057 0.183291 -0.751034 -0.295086 0.590653
-0.227024 -0.085646 0.185387 -0.769778 -0.408029 0.490872
-0.227485 -0.0817401 0.187368 -0.84699 -0.316673 0.426997
-0.227949 -0.0778338 0.189349 -0.795146 -0.250237 0.552381
-0.227246 -0.0741842 0.191137 -0.677856 -0.234605 0.696758
-0.226776 -0.0704832 0.192964 -0.714354 -0.293922 0.635066
-0.227005 -0.0666288 0.194906 -0.715391 -0.234063 0.658355
-0.225836 -0.0630816 0.196618 -0.695099 -0.321001 0.64327
-0.226994 -0.0590224 0.198713 -0.801009 -0.202799 0.563255
-0.225127 -0.0556292 0.200309 -0.824689 -0.186024 0.534119
-0.226284 -0.0515701 0.202405 -0.889754 -0.225004 0.397129
-0.225346 -0.0479722 0.204154 -0.921342 -0.0125178 0.388552
-0.224874 -0.0442719 0.205981 -0.906577 -0.0602537 0.417717
-0.224169 -0.0406228 0.207769 -0.749507 0.105241 0.653578
-0.221138 -0.0374857 0.209172 -0.759011 0.0839656 0.645641
-0.220665 -0.0337854 0.210999 -0.811582 -0.0138913 0.584074
-0.218796 -0.0303926 0.212594 -0.602164 0.0873642 0.793578
-0.215765 -0.0272555 0.213998 -0.630027 0.151035 0.761744
-0.213666 -0.0239134 0.215555 -0.662592 0.264869 0.700583
-0.210169 -0.0208788 0.216882 -0.608345 0.21744 0.763306
-0.207834 -0.0175885 0.2184 -0.719234 0.134759 0.681574
-0.205965 -0.0141957 0.219996 -0.71258 0.268454 0.648198
-0.202701 -0.0111098 0.221361 -0.674228 0.246443 0.696192
-0.200599 -0.00776819 0.222918 -0.611249 0.291106 0.735956
-0.196404 -0.0048875 0.224129 -0.465754 0.560055 0.685136
-0.190814 -0.00231358 0.22511 -0.468312 0.524262 0.71122
-0.186852 0.000618575 0.22636 -0.559268 0.507065 0.655823
-0.182657 0.00349927 0.227571 -0.37434 0.744115 0.553319
-0.174511 0.00551047 0.228129 -0.38508 0.640274 0.664652
-0.171014 0.00854513 0.229456 -0.429233 0.621202 0.655643
-0.1638 0.0107611 0.230168 -0.31095 0.679253 0.664775
-0.157514 0.0131818 0.231034 -0.480978 0.476275 0.736086
-0.154714 0.0163697 0.232475 -0.541642 0.506307 0.671028
-0.149126 0.0189439 0.233456 -0.409851 0.51518 0.752737
-0.144235 0.0216716 0.234553 -0.555384 0.41214 0.722281
-0.141435 0.0248595 0.235994 -0.709304 0.1229 0.694106
-0.140029 0.0283541 0.237666 -0.72967 0.148116 0.667565
-0.13723 0.0315426 0.239108 -0.695066 -0.0630431 0.716176
-0.137217 0.0353439 0.241011 -0.719518 0.135488 0.681129
-0.133024 0.0382251 0.242222 -0.647568 0.207563 0.733195
-0.131848 0.0417707 0.243932 -0.778316 -0.0977442 0.620218
-0.131141 0.0454193 0.24572 -0.790054 0.0882356 0.606655
-0.128571 0.0486577 0.2472 -0.563387 0.215412 0.797618
-0.124841 0.0516412 0.248488 -0.630374 0.15203 0.761259
-0.123435 0.055136 0.25016 -0.731077 -0.0843251 0.677064
-0.122493 0.0587327 0.251908 -0.795645 -0.0561393 0.603156
-0.121317 0.0622783 0.253619 -0.760316 0.153603 0.631129
-0.118517 0.0654662 0.25506 -0.666926 0.045796 0.743715
-0.117339 0.069011 0.25677 -0.669814 -0.153082 0.726578
-0.116396 0.0726079 0.258519 -0.811027 0.11424 0.573746
-0.114059 0.0758978 0.260037 -0.610249 0.0420066 0.791095
-0.111954 0.0792387 0.261594 -0.675401 0.0264297 0.736978
-0.110313 0.0826818 0.263227 -0.739865 0.128072 0.660452
-0.107976 0.0859716 0.264745 -0.698604 0.176448 0.693411
-0.105636 0.0892608 0.266263 -0.757448 0.0524031 0.650789
-0.104691 0.0928571 0.268011 -0.742634 -0.0743884 0.665554
-0.103283 0.0963514 0.269683 -0.721235 -0.0126651 0.692575
-0.101641 0.0997943 0.271316 -0.656569 0.221212 0.721098
-0.0979096 0.102777 0.272604 -0.746438 0.040996 0.664192
-0.0983567 0.10668 0.274582 -0.732424 -0.00203062 0.680846
-0.0948577 0.109714 0.275908 -0.592864 0.164961 0.788226
-0.0927509 0.113055 0.277465 -0.796547 0.0328243 0.603684
-0.0920362 0.116702 0.279251 -0.647651 -0.12292 0.751957
-0.0901599 0.120093 0.280845 -0.659218 0.0963341 0.745755
-0.0875898 0.123331 0.282325 -0.656699 0.0359489 0.753296
-0.086179 0.126825 0.283996 -0.807638 -0.0983006 0.581428
-0.0859277 0.130574 0.285859 -0.688136 -0.0419322 0.724369
-0.0831223 0.133761 0.2873 -0.715972 0.0396144 0.697005
-0.0824077 0.137408 0.289086 -0.748485 0.0743557 0.658969
-0.0796024 0.140595 0.290527 -0.656714 0.0361814 0.753272
-0.0784221 0.144139 0.292237 -0.675131 -0.125706 0.726907
-0.0772418 0.147684 0.293946 -0.83348 -0.152705 0.531029
-0.0774537 0.151534 0.295885 -0.807231 -0.497672 0.317335
-0.080678 0.156049 0.298323 -0.722583 -0.540792 0.430602
-0.0811202 0.15995 0.3003 -0.798017 -0.179007 0.575435
-0.0797072 0.163443 0.301971 -0.780195 -0.333017 0.529524
-0.0817721 0.167702 0.304217 -0.711725 -0.3464 0.611109
-0.0801236 0.171145 0.305849 -0.537383 0.413777 0.734853
-0.0738407 0.173564 0.306715 -0.329152 0.590939 0.736512
-0.0675571 0.175986 0.307581 -0.37638 0.606584 0.700282
-0.0622001 0.178612 0.308601 -0.382657 0.58721 0.713273
-0.0561476 0.181082 0.309504 -0.314974 0.653424 0.688352
-0.0489376 0.1833 0.310217 -0.307725 0.583303 0.751706
-0.0431173 0.185824 0.31116 -0.318364 0.587169 0.74423
-0.0361407 0.188091 0.311911 -0.281706 0.665352 0.691338
-0.0289306 0.190309 0.312625 -0.258283 0.670586 0.695417
-0.0212573 0.192425 0.313261 -0.183731 0.672766 0.716679
-0.0114987 0.194079 0.313552 -0.15402 0.768094 0.621537
-0.00197473 0.195788 0.313883 -0.129478 0.800254 0.585516
0.00917427 0.197139 0.313946 -0.143684 0.692766 0.706703
0.0173078 0.199151 0.314505 -0.171837 0.743189 0.646639
0.0275279 0.200706 0.314721 -0.0784599 0.769241 0.634123
0.0407581 0.201599 0.31444 -0.0736279 0.819773 0.567936
0.0516712 0.203 0.31454 -0.0688502 0.774038 0.629384
0.064899 0.203893 0.314259 -0.0864724 0.809686 0.580457
0.0748839 0.2055 0.314514 -0.0866848 0.778383 0.621776
0.0878805 0.206442 0.31427 -0.0387361 0.830378 0.555852
0.101802 0.207182 0.313874 -0.0224222 0.820551 0.571133
0.116184 0.207821 0.313402 0.0103236 0.742067 0.670246
0.132882 0.207948 0.312547 0.0427637 0.81334 0.580215
0.152358 0.207466 0.311233 0.200841 0.444828 0.872806
0.295283 0.179808 0.28952 0.22341 0.815283 0.53423
0.33814 0.174177 0.284341 0.189988 0.7368 0.648869
0.396974 0.165031 0.276524 0.227178 0.799623 0.555871
0.539631 0.137432 0.254855 0.234061 0.625351 0.744414
-0.192199 -0.27771 0.0919195 -0.61536 -0.772644 0.156055
-0.197806 -0.272671 0.0947509 -0.630096 -0.735388 0.249367
-0.201318 -0.268095 0.0972349 -0.614194 -0.704068 0.356448
-0.205526 -0.263363 0.099835 -0.62587 -0.683649 0.37538
-0.208337 -0.25894 0.102204 -0.720632 -0.545456 0.42798
-0.20928 -0.254928 0.104264 -0.812315 -0.302831 0.498435
-0.208827 -0.251224 0.106094 -0.741959 -0.320628 0.588808
-0.209535 -0.247263 0.108115 -0.727106 -0.426346 0.538094
-0.210479 -0.243251 0.110176 -0.685858 -0.272195 0.674914
-0.208859 -0.239804 0.111812 -0.725728 -0.290806 0.6235
-0.210268 -0.235689 0.11395 -0.769609 -0.41005 0.489449
-0.210511 -0.231831 0.115894 -0.724706 -0.379869 0.574892
-0.21122 -0.227871 0.117916 -0.747442 -0.38718 0.539834
-0.211695 -0.223962 0.119899 -0.73559 -0.375458 0.56386
-0.212171 -0.220053 0.121882 -0.722266 -0.533295 0.440373
-0.215207 -0.21558 0.124288 -0.756461 -0.47277 0.451946
-0.214749 -0.211877 0.126117 -0.725692 -0.290419 0.623721
-0.21499 -0.20802 0.128061 -0.723293 -0.363434 0.587165
-0.215465 -0.204111 0.130044 -0.680614 -0.379448 0.626724
-0.215703 -0.200254 0.131988 -0.769385 -0.377483 0.515317
-0.216642 -0.196243 0.134047 -0.824781 -0.33193 0.457775
-0.21665 -0.192437 0.135953 -0.652091 -0.404148 0.641437
-0.217586 -0.188427 0.138012 -0.767779 -0.343685 0.540735
-0.217361 -0.184672 0.139879 -0.672127 -0.397835 0.624478
-0.21853 -0.18061 0.141977 -0.736528 -0.479084 0.4775
-0.219932 -0.176497 0.144113 -0.748018 -0.402324 0.52783
-0.219937 -0.172692 0.146018 -0.655587 -0.355382 0.666265
-0.220175 -0.168835 0.147962 -0.715513 -0.235522 0.6577
-0.219014 -0.165286 0.149675 -0.748513 -0.278065 0.602003
-0.219948 -0.161277 0.151733 -0.683877 -0.409175 0.60406
-0.220186 -0.15742 0.153677 -0.780456 -0.371856 0.502604
-0.22112 -0.15341 0.155736 -0.802618 -0.36097 0.474873
-0.221356 -0.149554 0.157679 -0.684312 -0.326779 0.651868
-0.221123 -0.145801 0.159545 -0.789296 -0.313993 0.527656
-0.221825 -0.141842 0.161566 -0.680625 -0.378638 0.627202
-0.221825 -0.138037 0.16347 -0.730647 -0.247154 0.63645
-0.22113 -0.134386 0.16526 -0.760069 -0.271385 0.590462
-0.221596 -0.130479 0.167241 -0.715187 -0.398202 0.574406
-0.222294 -0.126521 0.169261 -0.774166 -0.283408 0.565991
-0.221596 -0.122871 0.17105 -0.756547 -0.347968 0.553674
-0.222994 -0.118759 0.173186 -0.748077 -0.401537 0.528345
-0.222992 -0.114955 0.17509 -0.703259 -0.299803 0.644627
-0.222759 -0.111202 0.176956 -0.717098 -0.311824 0.623327
-0.22299 -0.107346 0.178898 -0.824488 -0.312396 0.471836
-0.223454 -0.10344 0.180879 -0.672182 -0.396789 0.625083
-0.223918 -0.0995337 0.18286 -0.645911 -0.251858 0.72067
-0.222286 -0.0960885 0.184495 -0.730642 -0.323656 0.601172
-0.224144 -0.0918753 0.186707 -0.747533 -0.385313 0.541044
-0.223444 -0.0882251 0.188495 -0.676299 -0.346465 0.650063
-0.224371 -0.0842167 0.190553 -0.652937 -0.338542 0.677543
-0.223438 -0.0806179 0.192303 -0.668792 -0.198732 0.716396
-0.222735 -0.0769682 0.194092 -0.745496 -0.258373 0.614395
-0.222963 -0.0731136 0.196034 -0.780544 -0.370637 0.503369
-0.22389 -0.0691053 0.198091 -0.660425 -0.263226 0.703243
-0.222023 -0.0657119 0.199687 -0.76004 -0.270339 0.59098
-0.223646 -0.0615503 0.20186 -0.676274 -0.439773 0.590976
-0.22364 -0.0577476 0.203763 -0.751057 -0.294572 0.590881
-0.223633 -0.0539447 0.205667 -0.708513 -0.332853 0.62227
-0.223859 -0.0500906 0.207608 -0.920418 -0.217598 0.324781
-0.224085 -0.0462365 0.20955 -0.926739 0.229462 0.297493
-0.221054 -0.0430994 0.210954 -0.711705 0.348832 0.609748
-0.218489 -0.0398598 0.212434 -0.709018 0.122001 0.694557
-0.216855 -0.0364152 0.214069 -0.596647 -0.0239228 0.802146
-0.21452 -0.0331249 0.215587 -0.659211 0.125234 0.741456
-0.212188 -0.029834 0.217106 -0.732007 -0.00400216 0.681285
-0.211482 -0.026185 0.218894 -0.661919 -0.014691 0.749432
-0.208682 -0.0229972 0.220336 -0.595232 0.264628 0.758729
-0.205185 -0.0199626 0.221662 -0.687562 0.194746 0.699523
-0.203782 -0.0164672 0.223335 -0.729409 0.14749 0.667989
-0.200983 -0.0132789 0.224777 -0.522898 0.345524 0.779224
-0.19609 -0.0105517 0.225873 -0.540384 0.343924 0.76792
-0.193525 -0.0073123 0.227353 -0.597854 0.234969 0.766395
-0.190028 -0.00427764 0.22868 -0.468343 0.524241 0.711215
-0.183973 -0.00180622 0.229584 -0.434937 0.471803 0.766963
-0.180243 0.00117697 0.230872 -0.408676 0.593596 0.693273
-0.173029 0.00339318 0.231584 -0.335085 0.753462 0.565696
-0.166976 0.00586512 0.232488 -0.368708 0.539711 0.756813
-0.161619 0.00849007 0.233507 -0.421747 0.640993 0.641293
-0.156032 0.0110645 0.234489 -0.462456 0.594928 0.657416
-0.151604 0.0138942 0.235661 -0.402503 0.422059 0.812316
-0.146017 0.0164684 0.236642 -0.488795 0.539458 0.685613
-0.142287 0.0194518 0.237931 -0.630985 0.451098 0.631164
-0.139023 0.0225377 0.239296 -0.698152 0.0787356 0.711606
-0.138316 0.0261861 0.241083 -0.715817 0.2355 0.657379
-0.134121 0.029067 0.242294 -0.66934 0.138113 0.730005
-0.133646 0.0327669 0.24412 -0.673168 -0.080881 0.735054
-0.131309 0.0360566 0.245638 -0.697265 0.208652 0.685774
-0.128741 0.0392957 0.247119 -0.659257 -0.0424316 0.75072
-0.128034 0.0429443 0.248906 -0.583388 0.0397472 0.81122
-0.124071 0.0458763 0.250156 -0.611305 0.0702013 0.788276
-0.123361 0.0495244 0.251943 -0.800714 0.171866 0.573864
-0.120328 0.052661 0.253346 -0.79006 0.0883608 0.606628
-0.120081 0.0564109 0.25521 -0.72004 -0.141534 0.679346
-0.118443 0.0598545 0.256843 -0.630419 0.0919843 0.770787
-0.115409 0.0629912 0.258247 -0.629492 0.182662 0.755231
-0.113072 0.0662808 0.259765 -0.78895 -0.0342985 0.613499
-0.113058 0.0700821 0.261667 -0.721225 -0.0130468 0.692578
-0.110025 0.0732188 0.26307 -0.584749 0.0958061 0.805537
-0.10792 0.0765597 0.264627 -0.702385 -0.00296075 0.711791
-0.106742 0.0801048 0.266337 -0.783977 -0.118131 0.609446
-0.106263 0.0838036 0.268162 -0.749765 0.107024 0.652992
-0.102997 0.0868888 0.269526 -0.739871 0.12814 0.660433
-0.102285 0.0905364 0.271313 -0.737687 0.0618541 0.672304
-0.0994816 0.0937237 0.272754 -0.685979 0.0372963 0.726665
-0.0985365 0.0973198 0.274503 -0.626413 0.00547091 0.779472
-0.0955008 0.100456 0.275905 -0.724759 0.25018 0.641978
-0.0936267 0.103848 0.2775 -0.683626 0.00706637 0.729797
-0.0919856 0.107291 0.279133 -0.777412 -0.0442277 0.627435
-0.0912709 0.110938 0.28092 -0.707251 0.0597008 0.704438
-0.0882352 0.114074 0.282323 -0.71949 0.136549 0.680947
-0.0870573 0.117619 0.284032 -0.719758 -0.0924748 0.688038
-0.085877 0.121163 0.285742 -0.818504 0.0571403 0.571651
-0.0842358 0.124606 0.287375 -0.6859 0.229083 0.690697
-0.0807344 0.12764 0.288701 -0.710158 -0.022403 0.703686
-0.0811791 0.131542 0.290679 -0.74666 -0.191278 0.637112
-0.0795355 0.134985 0.292312 -0.696609 0.0488012 0.715789
-0.0774287 0.138325 0.293868 -0.640231 0.13452 0.756312
-0.0746234 0.141512 0.295309 -0.747402 -0.0430947 0.662973
-0.0748353 0.145363 0.297248 -0.837015 -0.320007 0.443849
-0.0755105 0.149316 0.299264 -0.835307 -0.372727 0.404151
-0.076416 0.153319 0.301318 -0.698809 -0.486255 0.524616
-0.0780177 0.157476 0.303487 -0.778881 -0.315447 0.542068
-0.076835 0.16102 0.305196 -0.800289 -0.284504 0.52782
-0.0782039 0.165126 0.307327 -0.73544 -0.353682 0.57796
-0.0774866 0.168773 0.309113 -0.490627 0.195099 0.849248
-0.0712037 0.171193 0.309979 -0.379446 0.618015 0.688533
-0.0658467 0.173819 0.310998 -0.382658 0.587169 0.713306
-0.0597936 0.176291 0.311903 -0.361032 0.591294 0.72113
-0.0539763 0.178813 0.312845 -0.282312 0.554843 0.782591
-0.0463006 0.180929 0.313481 -0.273089 0.625151 0.73117
-0.0397867 0.1833 0.31431 -0.285221 0.602987 0.745021
-0.0325772 0.185516 0.315022 -0.263273 0.655886 0.707461
-0.0251367 0.187683 0.315697 -0.245864 0.646665 0.722063
-0.0174634 0.189799 0.316334 -0.239404 0.651628 0.719768
-0.00979307 0.191913 0.31697 -0.194743 0.703027 0.68398
-0.000266684 0.193621 0.317301 -0.104451 0.734224 0.670824
0.0118065 0.194768 0.317211 -0.128729 0.79371 0.594519
0.0204033 0.196679 0.317694 -0.162296 0.714721 0.680319
0.0303906 0.198285 0.317948 -0.104926 0.704081 0.702325
0.0417676 0.199586 0.317973 -0.0777718 0.794707 0.60199
0.0540706 0.20068 0.317844 -0.0771706 0.78885 0.609721
0.0654453 0.201982 0.317869 -0.0719357 0.803065 0.591533
0.0782098 0.202977 0.317664 -0.0522058 0.7642 0.642863
0.0907384 0.204022 0.317497 -0.0568208 0.779902 0.623317
0.10327 0.205068 0.317331 -0.00268694 0.803683 0.595051
0.120895 0.204993 0.316324 0.022615 0.778598 0.627116
0.136203 0.205426 0.315698 0.209725 0.844429 0.492904
0.265 0.180879 0.296319 0.203007 0.448568 0.870388
0.306237 0.175606 0.291409 0.177334 0.742547 0.645892
0.352335 0.169261 0.285695 0.19313 0.728218 0.657571
0.412321 0.159861 0.277687 0.20131 0.707207 0.67774
-0.189082 -0.280188 0.0951064 -0.515213 -0.758924 0.398235
-0.194226 -0.275251 0.0978612 -0.597074 -0.722663 0.348224
-0.197503 -0.270727 0.100306 -0.697752 -0.619574 0.359544
-0.199613 -0.266457 0.10256 -0.616002 -0.603041 0.506837
-0.202188 -0.262086 0.10489 -0.670432 -0.641299 0.37317
-0.205465 -0.25756 0.107336 -0.623504 -0.506021 0.595976
-0.204776 -0.253907 0.109126 -0.663286 -0.336701 0.668344
-0.205487 -0.249947 0.111148 -0.76938 -0.378132 0.514849
-0.205965 -0.246037 0.113132 -0.70561 -0.418424 0.571871
-0.206909 -0.242025 0.115192 -0.748247 -0.418607 0.514679
-0.207617 -0.238065 0.117214 -0.751153 -0.297181 0.589451
-0.206929 -0.234412 0.119004 -0.667743 -0.299284 0.681577
-0.207171 -0.230554 0.120949 -0.703295 -0.387812 0.5958
-0.20788 -0.226594 0.12297 -0.740786 -0.527988 0.41529
-0.210686 -0.222172 0.125338 -0.828635 -0.426616 0.36244
-0.210228 -0.218469 0.127167 -0.678602 -0.364025 0.637953
-0.211167 -0.214458 0.129227 -0.790438 -0.332821 0.514236
-0.210941 -0.210703 0.131094 -0.695146 -0.322983 0.642226
-0.211184 -0.206845 0.133039 -0.779875 -0.420636 0.46353
-0.212821 -0.20268 0.135214 -0.792337 -0.484383 0.370912
-0.214226 -0.198567 0.13735 -0.703316 -0.300946 0.644033
-0.212601 -0.19512 0.138986 -0.771794 -0.265762 0.577673
-0.214006 -0.191007 0.141123 -0.769689 -0.39357 0.502675
-0.214011 -0.187201 0.143028 -0.724721 -0.379238 0.575289
-0.214947 -0.183191 0.145087 -0.780596 -0.388642 0.489516
-0.215418 -0.179283 0.147069 -0.62668 -0.316129 0.712275
-0.214492 -0.175683 0.148821 -0.670316 -0.382599 0.635842
-0.216127 -0.171518 0.150995 -0.676981 -0.455001 0.578507
-0.216363 -0.167662 0.152939 -0.785845 -0.277497 0.55267
-0.216135 -0.163908 0.154805 -0.715174 -0.398611 0.574138
-0.217535 -0.159795 0.156941 -0.769691 -0.408989 0.490208
-0.21777 -0.155939 0.158885 -0.764705 -0.30809 0.565957
-0.217773 -0.152134 0.160789 -0.747479 -0.386113 0.540548
-0.21894 -0.148073 0.162887 -0.764705 -0.307976 0.566017
-0.218012 -0.144473 0.164638 -0.717119 -0.31226 0.623085
-0.218943 -0.140464 0.166696 -0.766434 -0.325587 0.553688
-0.218478 -0.136762 0.168524 -0.821247 -0.166395 0.545771
-0.218015 -0.133059 0.170352 -0.822516 -0.275164 0.497747
-0.218714 -0.129101 0.172371 -0.699817 -0.354761 0.62
-0.218482 -0.125348 0.174238 -0.79045 -0.331509 0.515064
-0.219411 -0.121339 0.176296 -0.660331 -0.318832 0.679934
-0.218248 -0.117791 0.178008 -0.710634 -0.350256 0.61018
-0.219875 -0.113629 0.180181 -0.801193 -0.409745 0.436119
-0.220109 -0.109773 0.182124 -0.667083 -0.240913 0.704955
-0.21871 -0.106277 0.183797 -0.692983 -0.246918 0.677352
-0.219173 -0.10237 0.185778 -0.724766 -0.378083 0.575992
-0.219637 -0.0984637 0.18776 -0.768846 -0.245394 0.590472
-0.218704 -0.0948649 0.18951 -0.65641 -0.24634 0.713051
-0.218467 -0.0911128 0.191375 -0.660335 -0.318422 0.680121
-0.218465 -0.0873088 0.193279 -0.675147 -0.425865 0.602342
-0.219857 -0.0831981 0.195414 -0.727571 -0.438906 0.52726
-0.220319 -0.0792922 0.197394 -0.766456 -0.324679 0.554193
-0.220314 -0.0754887 0.199298 -0.766182 -0.108901 0.633329
-0.218448 -0.0720955 0.200894 -0.677881 -0.234521 0.696762
-0.219142 -0.0681384 0.202913 -0.818665 -0.235059 0.523961
-0.218206 -0.0645399 0.204663 -0.726847 -0.227431 0.64805
-0.218199 -0.0607372 0.206566 -0.708519 -0.332927 0.622222
-0.218425 -0.0568831 0.208508 -0.642132 -0.558369 0.525252
-0.221909 -0.052312 0.210988 -0.771927 -0.584436 0.250127
-0.223529 -0.0481509 0.21316 -0.824087 -0.11285 0.555108
-0.220498 -0.0450138 0.214564 -0.592167 0.548061 0.590734
-0.215607 -0.0422862 0.21566 -0.458798 0.287586 0.840713
-0.212346 -0.0391999 0.217025 -0.709667 -0.0247835 0.704102
-0.21257 -0.0353463 0.218967 -0.792849 -0.00304254 0.609412
-0.209771 -0.032158 0.220409 -0.614429 0.260453 0.744743
-0.206508 -0.0290721 0.221774 -0.558145 0.118512 0.821237
-0.204175 -0.0257813 0.223293 -0.687374 0.0666035 0.723243
-0.202539 -0.0223372 0.224927 -0.768147 0.0626575 0.637199
-0.200902 -0.0188931 0.226561 -0.581252 0.209968 0.786168
-0.196474 -0.0160636 0.227734 -0.619209 0.304444 0.723805
-0.194605 -0.0126707 0.229329 -0.657332 0.373954 0.654273
-0.19018 -0.0098407 0.230502 -0.492051 0.425671 0.759401
-0.185984 -0.0069598 0.231714 -0.434879 0.399635 0.806952
-0.18086 -0.00428337 0.232771 -0.561074 0.466595 0.683729
-0.178062 -0.00109518 0.234213 -0.481355 0.438234 0.759111
-0.172009 0.00137676 0.235118 -0.334391 0.69919 0.631914
-0.165025 0.0036437 0.235868 -0.378199 0.658435 0.650714
-0.160137 0.00637168 0.236964 -0.408856 0.689389 0.597979
-0.153618 0.00874112 0.237792 -0.350068 0.677476 0.646899
-0.147565 0.0112131 0.238696 -0.486821 0.451323 0.747873
-0.144767 0.0144013 0.240138 -0.611834 0.408888 0.677104
-0.140574 0.0172827 0.241349 -0.474979 0.500663 0.723693
-0.13545 0.0199591 0.242407 -0.639686 0.163756 0.750989
-0.135439 0.0237608 0.24431 -0.678581 0.0870951 0.729344
-0.131246 0.0266422 0.245521 -0.619162 0.200323 0.759281
-0.12984 0.0301371 0.247193 -0.628188 -0.0688598 0.775009
-0.127969 0.0335292 0.248788 -0.567234 0.102168 0.817196
-0.124472 0.0365639 0.250115 -0.697283 0.208653 0.685756
-0.123066 0.0400587 0.251787 -0.691454 -0.0136366 0.722292
-0.121197 0.0434514 0.253383 -0.748936 -0.0956446 0.655703
-0.12095 0.0472015 0.255246 -0.788953 -0.0345856 0.61348
-0.118848 0.0505432 0.256804 -0.674515 0.247205 0.695644
-0.115582 0.0536283 0.258168 -0.600768 0.0318171 0.79879
-0.114406 0.0571739 0.259878 -0.702383 -0.00322831 0.711792
-0.112302 0.0605151 0.261435 -0.788962 -0.0343673 0.61348
-0.112055 0.0642649 0.263299 -0.852494 -0.000225083 0.522737
-0.110184 0.0676573 0.264894 -0.558567 0.119648 0.820784
-0.106454 0.0706407 0.266182 -0.630454 0.0921386 0.770739
-0.105509 0.0742368 0.26793 -0.766629 -0.106592 0.63318
-0.104566 0.0778337 0.269679 -0.8045 0.0101367 0.593868
-0.102925 0.0812768 0.271312 -0.606801 -0.0134488 0.79474
-0.100588 0.0845664 0.27283 -0.685994 0.0371846 0.726656
-0.0991794 0.0880608 0.274502 -0.675445 0.0265632 0.736932
-0.0968398 0.0913501 0.27602 -0.676793 0.215411 0.703953
-0.0940393 0.0945378 0.277461 -0.6807 -0.0227463 0.732209
-0.0935574 0.0982361 0.279286 -0.788984 -0.0337915 0.613483
-0.0916834 0.101628 0.280881 -0.719517 0.136389 0.68095
-0.0893438 0.104917 0.282399 -0.659293 0.158237 0.735046
-0.0867737 0.108156 0.283879 -0.701996 -0.0816635 0.707483
-0.0867551 0.111956 0.28578 -0.77928 0.0767897 0.621954
-0.0834889 0.115041 0.287145 -0.662461 -0.0127418 0.748988
-0.0832375 0.11879 0.289008 -0.664285 -0.133755 0.735415
-0.0811307 0.122131 0.290564 -0.634205 -0.0128013 0.773059
-0.0794872 0.125573 0.292197 -0.754539 0.258222 0.603317
-0.0764538 0.12871 0.2936 -0.648952 -0.050252 0.759168
-0.0762 0.132458 0.295462 -0.65944 -0.0411659 0.750629
-0.0731643 0.135594 0.296865 -0.654656 0.00673759 0.755897
-0.0724496 0.139241 0.298651 -0.746698 -0.191129 0.637112
-0.0719654 0.142939 0.300476 -0.715365 -0.290858 0.635338
-0.0721749 0.146789 0.302415 -0.679752 -0.35924 0.639441
-0.0723868 0.15064 0.304354 -0.708533 -0.483675 0.513847
-0.0746845 0.154951 0.306638 -0.696652 -0.416614 0.584045
-0.0737347 0.158546 0.308386 -0.819446 -0.231411 0.524363
-0.0744074 0.162498 0.310402 -0.675411 -0.17025 0.71752
-0.0718324 0.165736 0.311881 -0.541498 0.0469352 0.839391
-0.0692603 0.168973 0.313359 -0.475003 0.501516 0.723086
-0.0625135 0.171293 0.314149 -0.331581 0.561462 0.758164
-0.0569261 0.173868 0.315131 -0.29991 0.627939 0.718155
-0.0490206 0.17593 0.315728 -0.280266 0.619283 0.733443
-0.0429699 0.178404 0.316633 -0.355177 0.61002 0.708325
-0.0369191 0.180877 0.317538 -0.343522 0.60601 0.717456
-0.0306386 0.183297 0.318404 -0.293481 0.680107 0.671806
-0.0229653 0.185413 0.319041 -0.251616 0.716834 0.65026
-0.015292 0.187529 0.319677 -0.210899 0.766022 0.607233
-0.00599903 0.189286 0.320045 -0.14342 0.726172 0.672388
0.00422106 0.190841 0.320261 -0.151573 0.712879 0.684711
0.013049 0.192703 0.320707 -0.170557 0.813576 0.555881
0.0230356 0.194307 0.320961 -0.107745 0.761234 0.639464
0.0346455 0.195557 0.320947 -0.0950643 0.753946 0.650023
0.0453265 0.19701 0.321087 -0.103992 0.763209 0.637728
0.0564677 0.198361 0.321149 -0.0726822 0.778444 0.623491
0.0692322 0.199356 0.320945 -0.0609537 0.759436 0.647721
0.0810702 0.200555 0.320893 -0.0713844 0.79738 0.599242
0.0933684 0.201651 0.320765 -0.0433064 0.791762 0.609294
0.107287 0.202392 0.32037 0.00150875 0.751318 0.659939
0.123523 0.202623 0.319591 0.0444608 0.810128 0.584565
0.143692 0.201986 0.318162 0.19815 0.448175 0.871708
0.274567 0.176981 0.29844 0.220669 0.815692 0.534746
0.318118 0.171199 0.293148 0.183132 0.738322 0.649109
0.367917 0.164039 0.286822 0.199563 0.736466 0.646369
0.434385 0.153212 0.277743 0.205925 0.652927 0.728891
-0.178508 -0.284308 0.097061 -0.395889 -0.834473 0.383311
-0.187379 -0.27855 0.100432 -0.546962 -0.826565 0.132754
-0.193455 -0.27341 0.103339 -0.632819 -0.702574 0.32547
-0.195099 -0.269243 0.105516 -0.658991 -0.658601 0.363285
-0.199772 -0.26441 0.108193 -0.736696 -0.551869 0.390792
-0.199086 -0.260756 0.109984 -0.69767 -0.340194 0.630496
-0.20003 -0.256744 0.112044 -0.738807 -0.540225 0.40289
-0.202838 -0.252322 0.114413 -0.777893 -0.451183 0.437397
-0.202383 -0.248618 0.116242 -0.723043 -0.21126 0.657708
-0.201694 -0.244965 0.118032 -0.703302 -0.387962 0.595694
-0.203336 -0.240799 0.120208 -0.730709 -0.325646 0.600016
-0.201949 -0.2373 0.121883 -0.725751 -0.29071 0.623516
-0.203123 -0.233238 0.123982 -0.74645 -0.476391 0.464611
-0.20453 -0.229123 0.126119 -0.702718 -0.549476 0.451954
-0.20687 -0.224804 0.12841 -0.639813 -0.477648 0.602072
-0.206645 -0.221049 0.130277 -0.76964 -0.409776 0.48963
-0.208518 -0.216833 0.132491 -0.665894 -0.3521 0.657731
-0.206896 -0.213386 0.134127 -0.766462 -0.326593 0.553058
-0.208998 -0.209118 0.136379 -0.814053 -0.461333 0.352832
-0.209704 -0.205159 0.1384 -0.783528 -0.259137 0.56474
-0.208781 -0.201558 0.140152 -0.658019 -0.371117 0.655197
-0.210185 -0.197444 0.142289 -0.84087 -0.404738 0.359339
-0.210889 -0.193485 0.14431 -0.689238 -0.288786 0.664495
-0.20973 -0.189936 0.146022 -0.725839 -0.39502 0.563131
-0.212066 -0.185617 0.148313 -0.734293 -0.358546 0.576418
-0.210439 -0.182171 0.149948 -0.693075 -0.247959 0.676877
-0.211142 -0.178212 0.151969 -0.735619 -0.374773 0.564279
-0.21138 -0.174355 0.153913 -0.737708 -0.421618 0.527281
-0.212782 -0.170242 0.156049 -0.734296 -0.35833 0.576549
-0.212087 -0.166591 0.157838 -0.745381 -0.353513 0.565186
-0.213489 -0.162478 0.159975 -0.727174 -0.468254 0.501952
-0.214423 -0.158468 0.162033 -0.745377 -0.353407 0.565258
-0.214193 -0.154715 0.1639 -0.762601 -0.289987 0.578227
-0.214426 -0.150859 0.165843 -0.642821 -0.343216 0.684825
-0.214196 -0.147105 0.167709 -0.7678 -0.34302 0.541127
-0.21513 -0.143095 0.169768 -0.769719 -0.408724 0.490385
-0.215829 -0.139137 0.171788 -0.735632 -0.374233 0.56462
-0.216062 -0.135281 0.173731 -0.724973 -0.163862 0.669002
-0.2142 -0.131887 0.175328 -0.742213 -0.240483 0.62553
-0.215365 -0.127826 0.177424 -0.739653 -0.301284 0.601781
-0.214201 -0.124278 0.179137 -0.681496 -0.309758 0.663033
-0.215133 -0.120269 0.181195 -0.756686 -0.471486 0.452909
-0.216761 -0.116106 0.183368 -0.722609 -0.271148 0.635858
-0.214666 -0.112763 0.184927 -0.700063 -0.222674 0.678475
-0.215595 -0.108754 0.186985 -0.780527 -0.403617 0.477359
-0.216292 -0.104797 0.189004 -0.708517 -0.333516 0.621909
-0.215824 -0.101095 0.190831 -0.696751 -0.264617 0.66672
-0.215587 -0.0973431 0.192697 -0.734322 -0.202005 0.648047
-0.214654 -0.0937442 0.194447 -0.728335 -0.306257 0.612971
-0.215583 -0.0897352 0.196505 -0.747563 -0.385212 0.541074
-0.215812 -0.0858808 0.198447 -0.721609 -0.345228 0.600081
-0.21604 -0.0820261 0.200389 -0.704715 -0.401196 0.585165
-0.216967 -0.0780177 0.202447 -0.660351 -0.318217 0.680202
-0.215799 -0.0744707 0.204158 -0.804222 -0.222989 0.550912
-0.216493 -0.0705135 0.206177 -0.712517 -0.365803 0.598756
-0.216486 -0.0667106 0.208081 -0.730623 -0.246033 0.636914
-0.215783 -0.0630612 0.209869 -0.712714 -0.0750497 0.697428
-0.213916 -0.0596677 0.211465 -0.707451 -0.472829 0.525304
-0.218096 -0.0549434 0.21406 -0.622858 -0.618962 0.478471
-0.21902 -0.0509356 0.216117 -0.762559 -0.288437 0.579057
-0.218082 -0.0473378 0.217867 -0.565053 0.572504 0.5941
-0.210635 -0.0451729 0.21854 -0.522918 0.345233 0.77934
-0.210393 -0.0414218 0.220405 -0.805123 -0.152799 0.573087
-0.209457 -0.0378235 0.222155 -0.64605 0.0235147 0.762933
-0.206426 -0.0346864 0.223558 -0.625519 0.242889 0.741438
-0.203628 -0.031498 0.225 -0.749963 0.139277 0.646652
-0.202455 -0.027952 0.226711 -0.74825 0.0720121 0.659497
-0.200123 -0.0246611 0.22823 -0.611127 0.157399 0.775725
-0.197092 -0.0215241 0.229633 -0.648929 0.0832155 0.756284
-0.195688 -0.0180287 0.231306 -0.667336 0.200998 0.717121
-0.191958 -0.0150453 0.232594 -0.505968 0.346918 0.789711
-0.187763 -0.0121646 0.233805 -0.486671 0.451072 0.748122
-0.183105 -0.0093857 0.23494 -0.578529 0.560779 0.59231
-0.179608 -0.00635104 0.236266 -0.538753 0.544855 0.642557
-0.174487 -0.00367431 0.237324 -0.41102 0.480595 0.774655
-0.169363 -0.000997885 0.238382 -0.385679 0.598055 0.702555
-0.163077 0.0014228 0.239248 -0.432538 0.633008 0.642038
-0.158652 0.00425277 0.240421 -0.39075 0.533815 0.749904
-0.152136 0.00662273 0.241249 -0.347666 0.666752 0.659219
-0.146083 0.00909467 0.242153 -0.44022 0.612775 0.656287
-0.141657 0.0119246 0.243326 -0.470699 0.412805 0.779766
-0.137232 0.0147548 0.244499 -0.476152 0.425561 0.769531
-0.132806 0.017585 0.245672 -0.704055 0.255021 0.662775
-0.132099 0.0212334 0.24746 -0.602596 0.0880394 0.793174
-0.127906 0.0241148 0.248671 -0.569056 0.256253 0.781351
-0.125571 0.0274052 0.25019 -0.699293 0.143081 0.70037
-0.123469 0.0307466 0.251747 -0.754831 -0.116329 0.645522
-0.123688 0.0345992 0.253688 -0.760601 -0.0863862 0.643446
-0.121353 0.0378896 0.255206 -0.642774 0.270229 0.716812
-0.117856 0.0409241 0.256533 -0.768456 0.0636243 0.636732
-0.118075 0.0447767 0.258473 -0.658129 -0.116118 0.743897
-0.115275 0.0479645 0.259915 -0.625814 0.243865 0.740869
-0.112244 0.0511015 0.261319 -0.746478 0.0402746 0.66419
-0.111997 0.0548516 0.263182 -0.807292 -0.0455759 0.588391
-0.110126 0.058244 0.264777 -0.754841 0.0191732 0.655626
-0.10895 0.0617893 0.266488 -0.575358 0.0575623 0.815874
-0.105221 0.0647727 0.267776 -0.549776 0.136453 0.824091
-0.103116 0.0681139 0.269332 -0.735445 0.0291876 0.676956
-0.101941 0.0716593 0.271043 -0.770054 -0.176548 0.613064
-0.101924 0.0754601 0.272944 -0.614205 -0.031676 0.78851
-0.098195 0.0784435 0.274233 -0.620498 0.170619 0.765422
-0.0965538 0.0818864 0.275866 -0.70197 -0.0820293 0.707466
-0.0956087 0.0854827 0.277614 -0.731165 -0.083824 0.677031
-0.0942003 0.088977 0.279286 -0.687771 0.0681832 0.722718
-0.0916303 0.0922155 0.280765 -0.770309 0.167272 0.615341
-0.0902219 0.0957098 0.282437 -0.638564 -0.0594654 0.767268
-0.0883479 0.0991017 0.284032 -0.608832 0.0142793 0.79317
-0.0860083 0.102391 0.28555 -0.750157 0.14113 0.646024
-0.084367 0.105834 0.287183 -0.747407 -0.0436008 0.662935
-0.0834195 0.10943 0.288931 -0.600886 0.032508 0.798674
-0.0799206 0.112464 0.290257 -0.68327 0.261478 0.681742
-0.0780466 0.115855 0.291852 -0.628402 -0.0677163 0.774936
-0.0766358 0.119349 0.293523 -0.74666 -0.191412 0.637072
-0.0768501 0.123201 0.295463 -0.699146 -0.0323726 0.714245
-0.0735815 0.126285 0.296827 -0.727278 0.216722 0.651228
-0.0721708 0.129779 0.298499 -0.628432 -0.0675302 0.774929
-0.0702944 0.13317 0.300093 -0.739675 0.162473 0.653056
-0.0679548 0.13646 0.301611 -0.732486 -0.00155349 0.680779
-0.0672377 0.140106 0.303397 -0.727719 -0.224421 0.64812
-0.0669864 0.143855 0.305259 -0.685179 -0.405218 0.60525
-0.0683552 0.147961 0.30739 -0.786543 -0.470207 0.40032
-0.0697264 0.152067 0.309521 -0.717037 -0.50684 0.47851
-0.0713281 0.156224 0.31169 -0.757695 -0.343884 0.554656
-0.0703782 0.159819 0.313438 -0.669032 -0.106512 0.735562
-0.0687321 0.163262 0.31507 -0.688783 0.100607 0.717952
-0.0661576 0.166498 0.316549 -0.444785 0.388884 0.806805
-0.0596437 0.168869 0.317377 -0.357938 0.579833 0.731898
-0.054289 0.171495 0.318397 -0.35688 0.537454 0.764055
-0.0480061 0.173915 0.319262 -0.330404 0.678972 0.655615
-0.0412593 0.176235 0.320052 -0.311454 0.679675 0.664108
-0.0345149 0.178555 0.320843 -0.317452 0.663846 0.677151
-0.0280015 0.180924 0.32167 -0.287705 0.613312 0.735577
-0.0207939 0.183143 0.322384 -0.275432 0.635251 0.721522
-0.0138166 0.185412 0.323136 -0.198544 0.651724 0.732008
-0.00406042 0.187067 0.323427 -0.152115 0.791427 0.592035
0.00569641 0.188724 0.32372 -0.166766 0.745812 0.644944
0.0145243 0.190586 0.324166 -0.142001 0.788346 0.598621
0.0256679 0.191936 0.324228 -0.110096 0.780931 0.614838
0.0361185 0.19344 0.324406 -0.119981 0.829446 0.545549
0.0470299 0.194843 0.324507 -0.0871045 0.815383 0.572331
0.0593305 0.195938 0.324378 -0.0621415 0.771167 0.633592
0.0716317 0.197036 0.32425 -0.0805613 0.787434 0.611112
0.0827712 0.198388 0.324314 -0.0694129 0.809845 0.582522
0.0959959 0.19928 0.324033 -0.0183677 0.802187 0.59679
0.111305 0.199715 0.323408 0.00603361 0.797972 0.602665
0.127075 0.200049 0.322707 0.205563 0.843086 0.496941
0.24498 0.177897 0.305126 0.200777 0.4508 0.869752
0.286911 0.172471 0.300102 0.176175 0.732005 0.658127
0.331154 0.166537 0.294696 0.185727 0.743182 0.642795
0.383267 0.158868 0.287988 0.208219 0.759639 0.616111
0.46478 0.144729 0.276423 0.216593 0.660909 0.718531
-0.184032 -0.281078 0.103578 -0.608691 -0.722159 0.328607
-0.18824 -0.276349 0.106178 -0.601127 -0.677621 0.423645
-0.190818 -0.271976 0.108508 -0.641097 -0.675344 0.36456
-0.195026 -0.267245 0.111108 -0.608961 -0.67012 0.424388
-0.197369 -0.262926 0.1134 -0.726529 -0.483045 0.488696
-0.197614 -0.259067 0.115345 -0.801885 -0.39566 0.447698
-0.199023 -0.254953 0.117482 -0.70461 -0.403433 0.583752
-0.1988 -0.251197 0.119349 -0.692417 -0.306621 0.653103
-0.198812 -0.24739 0.121256 -0.737288 -0.407271 0.539015
-0.200219 -0.243276 0.123393 -0.712472 -0.368122 0.597386
-0.199531 -0.239624 0.125184 -0.748638 -0.279037 0.601398
-0.200006 -0.235715 0.127167 -0.708563 -0.335282 0.620907
-0.199783 -0.231959 0.129034 -0.791184 -0.350459 0.501205
-0.200957 -0.227897 0.131133 -0.67613 -0.554832 0.484778
-0.203528 -0.223526 0.133462 -0.726644 -0.410877 0.55061
-0.202372 -0.219977 0.135175 -0.621154 -0.398455 0.674834
-0.204244 -0.21576 0.137389 -0.761515 -0.509087 0.401155
-0.205649 -0.211647 0.139526 -0.757517 -0.458561 0.464639
-0.20659 -0.207635 0.141586 -0.700263 -0.283667 0.655106
-0.205198 -0.204137 0.14326 -0.779968 -0.355555 0.515005
-0.207534 -0.199819 0.14555 -0.734304 -0.358706 0.576304
-0.205909 -0.196372 0.147186 -0.678038 -0.236202 0.69604
-0.206383 -0.192464 0.149169 -0.844447 -0.371499 0.385873
-0.207552 -0.188402 0.151267 -0.673744 -0.412589 0.613058
-0.207557 -0.184596 0.153172 -0.816186 -0.216795 0.535574
-0.207097 -0.180894 0.155 -0.802627 -0.361257 0.474641
-0.208732 -0.176729 0.157175 -0.737836 -0.436516 0.514832
-0.208967 -0.172873 0.159118 -0.676324 -0.347515 0.649476
-0.208972 -0.169068 0.161024 -0.735633 -0.374611 0.564368
-0.209906 -0.165058 0.163082 -0.686144 -0.438167 0.580703
-0.210608 -0.161099 0.165103 -0.715198 -0.398512 0.574178
-0.211076 -0.157192 0.167084 -0.738529 -0.22196 0.636638
-0.209682 -0.153694 0.168759 -0.719534 -0.329382 0.611374
-0.211315 -0.14953 0.170933 -0.756629 -0.471828 0.452648
-0.212246 -0.145521 0.172991 -0.725667 -0.289393 0.624226
-0.211085 -0.141972 0.174704 -0.667133 -0.241301 0.704774
-0.211085 -0.138168 0.176608 -0.723336 -0.362384 0.587763
-0.211784 -0.13421 0.178628 -0.82253 -0.27512 0.497748
-0.211319 -0.130508 0.180456 -0.777408 -0.219308 0.589525
-0.211087 -0.126755 0.182322 -0.809194 -0.262985 0.525399
-0.21132 -0.122899 0.184265 -0.791608 -0.382644 0.476384
-0.212482 -0.118839 0.186361 -0.644204 -0.420277 0.639037
-0.21248 -0.115035 0.188265 -0.737033 -0.283213 0.613654
-0.212248 -0.111282 0.190131 -0.722799 -0.209259 0.658614
-0.211315 -0.107683 0.191882 -0.711335 -0.276741 0.646078
-0.211778 -0.103777 0.193863 -0.699859 -0.354351 0.620188
-0.211776 -0.099973 0.195767 -0.765575 -0.226163 0.602282
-0.211074 -0.0963233 0.197555 -0.780627 -0.238253 0.577804
-0.211304 -0.0924681 0.199498 -0.791628 -0.365524 0.48961
-0.212231 -0.0884599 0.201555 -0.757726 -0.364171 0.541508
-0.212227 -0.0846564 0.203459 -0.707914 -0.258569 0.657267
-0.211527 -0.0810062 0.205248 -0.689196 -0.358183 0.629852
-0.212684 -0.0769473 0.207343 -0.76007 -0.270436 0.590896
-0.211283 -0.0734514 0.209016 -0.66883 -0.198557 0.716408
-0.211046 -0.0696992 0.210881 -0.665935 -0.350126 0.658743
-0.211507 -0.0657935 0.212862 -0.696754 -0.264089 0.666926
-0.210336 -0.0622468 0.214573 -0.845481 -0.258902 0.467046
-0.211726 -0.0581365 0.216707 -0.596277 -0.668666 0.444229
-0.216837 -0.0532072 0.219456 -0.83721 -0.54688 0.000690458
-0.217526 -0.0492511 0.221475 -0.609558 0.493753 0.6202
-0.209381 -0.04724 0.222033 -0.461703 0.772727 0.435574
-0.206815 -0.0440004 0.223513 -0.69787 0.0778172 0.711985
-0.205412 -0.040505 0.225186 -0.672777 -0.0818358 0.735305
-0.20401 -0.0370092 0.226859 -0.760065 0.117915 0.639059
-0.201675 -0.0337189 0.228377 -0.676596 0.213868 0.704613
-0.198877 -0.0305305 0.229819 -0.591341 0.192671 0.783067
-0.195846 -0.0273934 0.231223 -0.688676 0.162187 0.706698
-0.194212 -0.0239489 0.232857 -0.611584 0.0983293 0.785045
-0.190948 -0.020863 0.234222 -0.614481 0.260567 0.744659
-0.188148 -0.0176751 0.235664 -0.579226 0.23921 0.77928
-0.184654 -0.0146401 0.236991 -0.667368 0.201048 0.717077
-0.183015 -0.0111965 0.238625 -0.598273 0.466298 0.651641
-0.177195 -0.00867333 0.239567 -0.401963 0.613495 0.679743
-0.17184 -0.00604785 0.240587 -0.450777 0.557296 0.697295
-0.167182 -0.00326893 0.241722 -0.443525 0.624699 0.642679
-0.161362 -0.000745738 0.242664 -0.345539 0.70405 0.620417
-0.15438 0.00152151 0.243415 -0.369848 0.624675 0.687746
-0.149491 0.0042497 0.244512 -0.429383 0.621126 0.655615
-0.143671 0.00677289 0.245454 -0.401851 0.569722 0.716892
-0.13855 0.00944962 0.246512 -0.486122 0.489198 0.724135
-0.134588 0.0123818 0.247762 -0.590879 0.494369 0.637542
-0.13086 0.0153657 0.249051 -0.63748 0.376905 0.671983
-0.128062 0.0185539 0.250492 -0.606484 0.248065 0.755408
-0.124799 0.0216398 0.251858 -0.749844 0.106194 0.653037
-0.124321 0.0253392 0.253683 -0.766039 0.0300534 0.642091
-0.121754 0.0285781 0.255163 -0.667628 0.311232 0.676319
-0.11849 0.031664 0.256528 -0.597152 -0.0230124 0.801798
-0.117782 0.0353126 0.258316 -0.754188 -0.0655128 0.653381
-0.116144 0.0387561 0.259949 -0.745857 0.243156 0.620138
-0.11311 0.0418927 0.261353 -0.624753 -0.0950378 0.775018
-0.113099 0.0456945 0.263255 -0.777166 0.0419884 0.627893
-0.110065 0.048831 0.264658 -0.749832 0.106577 0.652988
-0.109356 0.0524791 0.266446 -0.648855 -0.0512596 0.759184
-0.106788 0.0557182 0.267926 -0.665644 0.23387 0.708677
-0.103987 0.0589059 0.269367 -0.629647 0.0625015 0.774363
-0.102346 0.062349 0.271001 -0.768467 0.063931 0.636688
-0.100707 0.0657926 0.272634 -0.820442 0.0915742 0.564348
-0.0992989 0.0692868 0.274306 -0.658302 0.0652464 0.749921
-0.0964984 0.0724746 0.275747 -0.673311 -0.080268 0.73499
-0.0964822 0.0762755 0.277649 -0.751475 -0.0126806 0.65964
-0.0936817 0.0794631 0.279091 -0.760294 0.119586 0.638477
-0.0927366 0.0830595 0.280839 -0.754862 0.0195381 0.655593
-0.0906321 0.0864006 0.282396 -0.68814 -0.0424883 0.724332
-0.089687 0.0899967 0.284144 -0.640279 0.133934 0.756376
-0.0857248 0.0929289 0.285394 -0.558088 0.147736 0.816524
-0.0838507 0.0963207 0.286989 -0.734986 -0.199113 0.648189
-0.0845283 0.100274 0.289005 -0.732484 -0.00207522 0.680781
-0.0807988 0.103257 0.290293 -0.6368 0.226583 0.736984
-0.0789248 0.106649 0.291888 -0.74906 -0.0946588 0.655705
-0.0786734 0.110398 0.293751 -0.707308 0.059716 0.704378
-0.0751768 0.113433 0.295077 -0.729676 0.149273 0.667302
-0.0744598 0.117079 0.296863 -0.811947 -0.011457 0.583619
-0.0728186 0.120522 0.298496 -0.713282 -0.0723681 0.69713
-0.0718711 0.124118 0.300244 -0.717868 0.203211 0.665862
-0.0681393 0.127101 0.301532 -0.662523 -0.0125521 0.748937
-0.0683512 0.130952 0.303471 -0.725587 -0.159916 0.669291
-0.0664772 0.134344 0.305066 -0.726897 0.0509477 0.684854
-0.0648312 0.137786 0.306699 -0.751506 -0.0117589 0.659622
-0.063651 0.14133 0.308408 -0.814666 -0.367755 0.448416
-0.0661815 0.145691 0.310731 -0.791714 -0.493202 0.360474
-0.0668566 0.149644 0.312747 -0.768935 -0.338658 0.542263
-0.0668333 0.153443 0.314647 -0.740644 -0.297166 0.60261
-0.0668124 0.157243 0.316548 -0.75087 -0.210171 0.626117
-0.0658623 0.160839 0.318296 -0.689183 0.132416 0.712385
-0.0623613 0.163871 0.319621 -0.427025 0.317276 0.84675
-0.0570067 0.166498 0.320641 -0.360271 0.548889 0.754271
-0.0507232 0.168919 0.321508 -0.330342 0.520212 0.787562
-0.0449059 0.171442 0.32245 -0.349244 0.587459 0.730014
-0.0386247 0.173864 0.323317 -0.329382 0.590937 0.736411
-0.0323412 0.176286 0.324183 -0.275729 0.598858 0.751892
-0.0246709 0.1784 0.324819 -0.243985 0.636998 0.731235
-0.0172304 0.180567 0.325495 -0.215658 0.638032 0.739193
-0.0086329 0.18248 0.325979 -0.236053 0.563797 0.791462
-0.00235476 0.184901 0.326845 -0.190109 0.750446 0.633001
0.00902469 0.186201 0.326869 -0.146993 0.715793 0.682666
0.0169261 0.188266 0.327468 -0.157612 0.682795 0.713406
0.0276064 0.189718 0.327607 -0.130612 0.771628 0.62252
0.0373585 0.191376 0.3279 -0.11639 0.79858 0.590528
0.048966 0.192626 0.327887 -0.0614487 0.795392 0.602972
0.0621931 0.193517 0.327605 -0.0607008 0.818367 0.571482
0.0740287 0.194717 0.327554 -0.0832683 0.74694 0.659657
0.0851682 0.19607 0.327618 -0.0610199 0.759444 0.647705
0.0986234 0.196911 0.327298 -0.0199272 0.764757 0.644012
0.113239 0.197498 0.326788 0.0400336 0.787985 0.614391
0.134102 0.196711 0.325245 0.197638 0.462948 0.864071
0.25802 0.173235 0.306671 0.218349 0.804898 0.551782
0.298559 0.168116 0.301877 0.174941 0.728039 0.662839
0.343032 0.162131 0.296433 0.188368 0.740801 0.644772
0.39815 0.153801 0.289228 0.215558 0.774034 0.59532
0.496331 0.135993 0.274909 0.221279 0.604773 0.765039
-0.177418 -0.284326 0.106187 -0.564623 -0.771957 0.292033
-0.182795 -0.279339 0.10898 -0.591362 -0.722714 0.357739
-0.185836 -0.274865 0.111387 -0.698622 -0.657819 0.281426
-0.189345 -0.270288 0.113871 -0.657425 -0.634919 0.405797
-0.191455 -0.266019 0.116125 -0.655318 -0.599273 0.459815
-0.194031 -0.261648 0.118455 -0.714252 -0.524023 0.463944
-0.194742 -0.257687 0.120477 -0.635645 -0.363427 0.681085
-0.194286 -0.253983 0.122306 -0.711492 -0.278765 0.645035
-0.194298 -0.250176 0.124212 -0.715184 -0.399641 0.57341
-0.195472 -0.246113 0.126311 -0.630685 -0.39597 0.667416
-0.195017 -0.242409 0.12814 -0.692425 -0.306476 0.653162
-0.19526 -0.238552 0.130084 -0.677478 -0.532075 0.507857
-0.198298 -0.234078 0.132491 -0.765078 -0.482942 0.425937
-0.198076 -0.230323 0.134358 -0.779133 -0.338665 0.527502
-0.199014 -0.226312 0.136418 -0.648002 -0.374794 0.663041
-0.198559 -0.222608 0.138247 -0.736626 -0.391286 0.551614
-0.200196 -0.218443 0.140422 -0.731577 -0.530565 0.42813
-0.202069 -0.214227 0.142636 -0.706422 -0.432637 0.560173
-0.201843 -0.210472 0.144503 -0.697661 -0.339466 0.630898
-0.202316 -0.206564 0.146486 -0.813629 -0.338261 0.472852
-0.202787 -0.202656 0.148468 -0.658047 -0.371076 0.655191
-0.202795 -0.19885 0.150374 -0.76934 -0.424849 0.477096
-0.204663 -0.194634 0.152587 -0.710668 -0.351223 0.609585
-0.203271 -0.191136 0.154261 -0.753308 -0.314202 0.577758
-0.204908 -0.186972 0.156436 -0.769352 -0.424698 0.47721
-0.205144 -0.183116 0.15838 -0.715584 -0.23561 0.657593
-0.203985 -0.179566 0.160093 -0.671233 -0.259254 0.69443
-0.204223 -0.175709 0.162036 -0.723342 -0.362868 0.587455
-0.204691 -0.171802 0.164018 -0.756574 -0.348541 0.553277
-0.204929 -0.167945 0.165962 -0.790549 -0.415327 0.450039
-0.206562 -0.163782 0.168136 -0.687686 -0.479253 0.545348
-0.207263 -0.159823 0.170156 -0.676334 -0.347315 0.649573
-0.2068 -0.156121 0.171984 -0.762626 -0.289942 0.578217
-0.207266 -0.152214 0.173966 -0.757681 -0.365045 0.540981
-0.207735 -0.148306 0.175948 -0.719541 -0.329285 0.611417
-0.207502 -0.144553 0.177814 -0.767822 -0.342915 0.541162
-0.208436 -0.140543 0.179873 -0.7259 -0.394297 0.56356
-0.20867 -0.136688 0.181815 -0.691152 -0.3747 0.617989
-0.209136 -0.132781 0.183797 -0.771757 -0.264746 0.578188
-0.208438 -0.12913 0.185586 -0.748528 -0.277409 0.602287
-0.208902 -0.125224 0.187567 -0.757783 -0.18742 0.625011
-0.207272 -0.121778 0.189202 -0.70693 -0.197484 0.679153
-0.207503 -0.117923 0.191145 -0.725921 -0.39399 0.563748
-0.208435 -0.113914 0.193203 -0.683986 -0.408432 0.604439
-0.208666 -0.110058 0.195146 -0.82479 -0.186776 0.533701
-0.207732 -0.106459 0.196896 -0.755129 -0.330455 0.566198
-0.209125 -0.102349 0.199031 -0.779149 -0.33682 0.528658
-0.208425 -0.0986984 0.200819 -0.845485 -0.259459 0.466729
-0.209352 -0.09469 0.202877 -0.8123 -0.30029 0.499996
-0.208884 -0.0909888 0.204704 -0.715473 -0.234277 0.658189
-0.208414 -0.0872879 0.206531 -0.681529 -0.309189 0.663265
-0.208643 -0.0834332 0.208473 -0.745451 -0.352266 0.565872
-0.209104 -0.0795275 0.210454 -0.748507 -0.276681 0.602649
-0.208401 -0.0758778 0.212242 -0.753144 -0.166814 0.636356
-0.207698 -0.0722281 0.21403 -0.745545 -0.258179 0.614415
-0.207927 -0.0683736 0.215972 -0.715323 -0.397224 0.574914
-0.208851 -0.0643657 0.21803 -0.74219 -0.239422 0.625964
-0.207217 -0.0609211 0.219664 -0.661326 -0.690766 0.292385
-0.216279 -0.0551221 0.223066 -0.776257 -0.630303 0.0120012
-0.214645 -0.0516775 0.2247 -0.595283 0.264285 0.758809
-0.209986 -0.0488987 0.225835 -0.488914 0.787087 0.376108
-0.204399 -0.0463243 0.226816 -0.512335 0.359418 0.779956
-0.202067 -0.0430334 0.228335 -0.694724 -0.0640164 0.716423
-0.201594 -0.0393331 0.230161 -0.675057 0.0248497 0.737347
-0.19833 -0.0362473 0.231527 -0.634079 0.256002 0.729662
-0.195765 -0.0330077 0.233007 -0.760076 0.117986 0.639034
-0.194594 -0.0294611 0.234718 -0.675451 0.32455 0.662143
-0.189936 -0.0266823 0.235853 -0.649528 0.11361 0.751802
-0.189927 -0.0228799 0.237756 -0.766632 0.23558 0.597309
-0.185501 -0.0200498 0.238929 -0.542549 0.384775 0.746719
-0.182238 -0.0169641 0.240294 -0.664551 0.388099 0.638553
